0.656273998,0.777083709,0.624181821,0.637796876,0.757627843,0.947048415,1.22548407,1.428841302,1.494086701,1.571935489,1.400750202,1.206892993,1.159251064,1.165362835,1.117671526,0.908630486,0.867616922,1.053168099,1.180869538,1.324927275,1.412640742,1.394881535,1.22957631,1.18653182,1.137730086,1.008629536,0.901056297,0.954866974,1.080104458,1.319232072,1.468689996,1.551172942,1.517120745,1.58274979,1.820408654,1.94082079,2.018888625,2.200859092,2.376263235,2.250752259,2.405303958,2.490561069,2.449081557,2.321328205,2.392605606,2.528020512,2.724749379,2.6212152,2.539039932,2.455122422,2.356992229,2.285665448,2.248218666,2.227818242,2.219600842,2.216440498,2.216422772,2.218528402,2.230820316,2.247281706,2.262890968,2.288324391,2.295287023,2.332613519,2.367307662,2.409715272,2.451069433,2.496433534,2.543965307,2.592963297,2.633139927,2.632010509,2.702882737,2.783329693,2.836812434,2.880736907,2.924605669,2.979112736,3.040933162,3.128839086,3.201601697,3.289754523,3.382430084,3.430665844,3.522971685,3.562610196,3.388325341,3.46786699,3.72244053,3.507619455,3.33220898,3.225020654,3.052802178,3.001456721,2.984948483,2.911762974,2.938432173,3.020321289,3.095827675,3.040238039,2.866853426,2.748841935,2.654036687,2.543480367,2.445951601,2.379437507,2.343758289,2.275952709,2.196250257,2.142900464,2.096123324,2.057448364,2.011254926,1.953705269,2.02276815,1.981343083,1.904002026,1.855559882,1.801303515,1.7560597,1.703179653,1.679214979,1.685391324,1.733138344,1.812963614,1.932655303,1.944963677,1.841889116,1.733870187,1.68795024,1.661564661,1.497543327,1.439209914,1.537568017,1.542940348,1.336788693,1.311062786,1.353559027,1.392087112,1.447519744,1.439894908,1.420106041,1.388495007,1.379039299,1.367828688,1.422467436,1.442671605,1.43821471,1.501922986,1.514005983,1.495830207,1.496863397,1.511231819,1.525043129,1.573164934,1.602737445,1.564219489,1.544982669,1.520287419,1.458327715,1.390106833,1.385415697,1.266828102,1.136709558,1.209059399,1.433731225,1.474276309,1.653894244,1.798444518,1.86931548,2.018241616,2.130180587,2.027930298,1.727607743,1.66050235,1.741483627,1.76674232,1.519827802,1.595592485,1.852007027,1.512665116,1.31834829,1.391362867,1.2872108,1.228495007,1.310886789,1.527324755,1.588409541,1.466667933,1.466765427,1.561892281,1.484349904,1.396773183,1.366061124,1.351411614,1.346386211,1.317527816,1.29655382,1.259329883,1.208563063,1.15185667,1.153821756,1.146795815,1.115520314,1.086768276,1.05306554,1.018891791,0.995313296,1.015392115,1.005773072,0.983307535,1.000243736,1.019189339,1.064325531,1.075439913,1.100423848,1.06215406,1.016351867,0.952143456,0.859714797,0.755909659,0.716291407,0.626625516,0.675308232,0.722463954,0.810561069,0.888509884,0.907306079,0.882786826,0.949385752,0.985760094,1.01323204,1.023480367,0.998557207,1.035968536,1.043354067,1.07863191,1.015028726,0.939743918,0.936587373,1.01893484,1.105147904,1.196363579,1.155436114,1.158107719,1.164746213,1.176351867,1.135775129,1.16291914,1.110902616,1.054796385
0.869183166,0.953445072,0.780359274,0.784412263,0.747088299,1.006398557,1.247041768,1.247484925,1.394076255,1.555576658,1.580745454,1.415533925,1.35900986,1.288866942,1.032149787,0.999934793,0.936800089,1.024129908,1.251131475,1.415792223,1.519264359,1.509336372,1.391954165,1.368896064,1.228463352,1.052623649,0.976891885,1.001028758,1.100421316,1.2531662,1.404758875,1.487113939,1.63490939,1.672960132,1.733323204,1.916591488,2.150358166,2.313574221,2.268188595,2.184233101,2.244113765,2.376897583,2.279549879,2.303671557,2.488027476,2.612743301,2.682645648,2.723133754,2.658496114,2.544260323,2.425823402,2.34486365,2.268945761,2.241667537,2.224788313,2.217323014,2.215746641,2.221592517,2.234385832,2.232119399,2.255216751,2.262209772,2.286107339,2.326506814,2.361461786,2.401358593,2.437621512,2.479380846,2.523210357,2.563752908,2.584924426,2.598796512,2.696056851,2.755504487,2.802312014,2.836531345,2.931905101,3.007544434,3.08341421,3.163607933,3.239760062,3.298407483,3.268136049,3.281137015,3.366790434,3.315196809,3.306928762,3.587316842,3.688766915,3.514679582,3.348476647,3.190168241,3.171499929,3.061248754,2.921521295,2.826956618,2.818184638,2.863761455,2.894150642,2.986904705,2.898182106,2.832341611,2.714891031,2.586864188,2.480191191,2.394399759,2.306426729,2.250661096,2.198695219,2.151060887,2.112986088,2.087767912,2.053421965,1.97437412,1.911863634,1.901663422,1.851801909,1.811798743,1.781087951,1.751300192,1.712393524,1.678814871,1.683498409,1.745441654,1.832262476,1.905798712,1.945656268,1.839979741,1.755905228,1.75910229,1.792358071,1.678256493,1.585227672,1.426929396,1.383645601,1.295576342,1.36996344,1.427549816,1.451463843,1.462266749,1.458133992,1.380457402,1.434038903,1.418072583,1.355633003,1.454711552,1.526391593,1.483923207,1.518245098,1.551740183,1.536975452,1.54064606,1.573501733,1.531299242,1.572257094,1.586472311,1.561868224,1.566418815,1.503013152,1.434806198,1.37399617,1.299182375,1.299114002,1.175884653,1.243715556,1.52337939,1.619333048,1.63345077,1.805169112,1.949605432,2.103179653,2.176736147,2.21569093,1.928159157,1.776719687,1.831364766,1.887239289,1.696551288,1.595103746,1.799494168,1.60052799,1.576321479,1.670705095,1.47101847,1.367053796,1.379712897,1.723575012,1.646998718,1.544706646,1.57909311,1.490671858,1.411950683,1.359773357,1.364797493,1.287883133,1.263272716,1.232926578,1.211768988,1.190058085,1.166292199,1.180493487,1.159858823,1.121372521,1.091283415,1.056299321,1.04659038,1.016388586,0.994538404,0.955141731,0.928061029,0.912054192,0.924148584,0.939827485,1.006041499,0.98687685,1.000020892,1.109913743,1.096505073,1.013381448,0.92472089,0.859312157,0.808455439,0.635074625,0.716699112,0.743397433,0.749395249,0.872885428,0.935808683,0.93930456,0.929688049,0.974508966,1.016864663,1.042201858,1.023718405,1.055176234,1.070970356,1.095357929,1.047657756,0.98653372,0.979738221,1.051877879,1.118023519,1.192134593,1.181473498,1.205025402,1.196283811,1.200701455,1.170688318,1.176178402,1.147770761,1.07016381
1.064367314,1.141153791,0.961925834,0.970343289,0.866493835,0.882948894,1.029324977,1.126711932,1.246252948,1.474772645,1.702247757,1.61835557,1.440015194,1.233928114,1.085451466,1.143483532,1.043086906,1.082589937,1.163223019,1.291928525,1.462236361,1.574329804,1.4604612,1.2857028,1.163335707,1.07171486,1.086121267,1.105477106,1.118847791,1.182062264,1.26783217,1.418463827,1.571540446,1.745589795,1.902552269,2.0332925,2.201966985,2.231312853,2.203407879,2.098879762,2.196687084,2.222415523,2.218287831,2.391588877,2.556488929,2.546514094,2.554647927,2.733506165,2.584838327,2.462475033,2.386464714,2.333750534,2.289427219,2.252556542,2.232846177,2.226609056,2.219229856,2.215333871,2.225968378,2.224708545,2.242885586,2.234860643,2.284572749,2.315938148,2.346467879,2.384027349,2.419398889,2.458463827,2.492642641,2.504374911,2.53137078,2.625549277,2.683683902,2.73460013,2.748320276,2.830146084,2.907487141,2.98805818,3.0576098,3.109233813,3.161122454,3.174138613,3.128735261,3.219885096,3.159211813,3.179645158,3.374240539,3.450297707,3.443746577,3.568844784,3.508024627,3.360833135,3.287603311,3.128888467,3.027470047,2.862962506,2.735938464,2.738236551,2.743498726,2.795720368,2.759006695,2.751743982,2.693252299,2.571423326,2.44321922,2.335433265,2.263548106,2.219737588,2.182655461,2.136462023,2.101196841,2.092692022,2.040020892,1.97276356,1.925092509,1.859804061,1.814712185,1.785115617,1.774201288,1.744026083,1.714689078,1.695777662,1.680915436,1.762141082,1.8704411,1.836423088,1.900011079,1.822494025,1.681143346,1.707190858,1.742088853,1.689833025,1.566834117,1.505193486,1.362119557,1.296344903,1.419669215,1.43066711,1.46821012,1.478447051,1.474573857,1.398838295,1.478344491,1.470015669,1.36730323,1.465667664,1.528209803,1.538522704,1.543751959,1.561099663,1.555694411,1.556647832,1.563035627,1.554723264,1.569485463,1.577011538,1.577002675,1.583415792,1.528271845,1.458706298,1.391726255,1.393131697,1.389591504,1.212123514,1.231633826,1.439884779,1.655411107,1.757365114,1.760157004,1.91173955,2.079725243,2.255543421,2.35875093,2.14417549,1.920379849,1.980770777,2.00464682,1.850145767,1.651161863,1.900987291,1.953653356,1.943863381,1.935962522,1.820960701,1.726082016,1.501844483,1.759794882,1.743381606,1.68937594,1.565750281,1.510120127,1.465847459,1.430662045,1.426748334,1.333608091,1.316654163,1.287660288,1.2562683,1.225771489,1.247792602,1.262706741,1.305167529,1.224005191,1.216927338,1.149291423,1.179818622,1.073487489,1.104096988,1.009608281,0.963452828,0.936064448,0.872613203,0.85927164,0.899478657,0.905119415,0.976658911,1.084523369,1.205701534,1.119770824,0.988098697,0.894620388,0.787188959,0.664092557,0.672271972,0.824083693,0.801182597,0.796058433,0.912323885,0.973282054,0.985927227,0.984240698,1.014670402,1.063337923,1.04602947,1.079421996,1.093100359,1.135754871,1.116223035,1.018851273,1.05520409,1.047900859,1.130041942,1.196488929,1.218303658,1.254115822,1.232701201,1.237778516,1.205053258,1.205806625,1.176387319,1.122494342
1.201369989,1.305452416,1.170385705,1.121924568,1.098865201,0.947929665,1.098827216,1.248507985,1.330546508,1.499391925,1.682812149,1.618560689,1.443774433,1.243787728,1.222625073,1.249726034,1.187123119,1.307847997,1.420869538,1.396169223,1.470005539,1.625382777,1.448870741,1.33606698,1.304046975,1.218225156,1.189003371,1.254828672,1.288820094,1.314753652,1.344707279,1.399301711,1.489972936,1.565605938,1.715952709,1.863317665,2.134653942,2.237656332,2.135961888,2.038393872,2.121975848,2.104315401,2.263259421,2.444246079,2.55948847,2.431592042,2.483308485,2.581247487,2.630567083,2.495756137,2.43180729,2.390025165,2.331087793,2.318075432,2.278349556,2.248614976,2.23860722,2.218000412,2.209360113,2.205112135,2.227139579,2.223565199,2.265176392,2.295533925,2.324056787,2.362949528,2.401595366,2.417826314,2.431522403,2.496700695,2.561967618,2.611851922,2.660719497,2.665852524,2.727699539,2.82159315,2.892132377,2.964955763,3.015432632,3.022375006,3.038194451,3.032177643,3.052156434,3.060463732,3.041671336,3.228320276,3.215529494,3.243754807,3.283763038,3.436142,3.468429166,3.521762499,3.341755852,3.064990266,2.933571372,2.827782157,2.731749996,2.653354225,2.645538199,2.651585395,2.691518921,2.604585411,2.608434547,2.507478277,2.401528259,2.347166801,2.276421189,2.18665907,2.148051216,2.11588307,2.072381495,2.052836997,2.064235,2.033963566,2.005386259,1.956784578,1.896853267,1.840105092,1.744614849,1.7294766,1.708554516,1.68789073,1.665378345,1.728984062,1.806807527,1.765957299,1.839098492,1.745975975,1.699196303,1.642916607,1.635136033,1.603200861,1.482127788,1.440433028,1.384245762,1.308848266,1.417864932,1.465957615,1.482745675,1.48833452,1.456128389,1.426362154,1.501472231,1.47113749,1.394682747,1.429480715,1.432808192,1.538182106,1.560195622,1.56935125,1.568932149,1.573857525,1.574212051,1.573782821,1.591190035,1.586872418,1.586753399,1.579402054,1.55921941,1.469595303,1.462054034,1.435884969,1.407982527,1.265521422,1.268953991,1.490274283,1.677158729,1.802562082,1.864426824,1.927415919,2.032587247,2.285952867,2.44978681,2.244781033,2.101033506,2.169330358,2.008741592,1.809943814,1.706676796,1.836133137,1.924767105,1.921919504,1.935695361,1.991296393,1.94751373,1.673029771,1.781613409,1.734727379,1.653428296,1.616909612,1.603536394,1.553957235,1.485862969,1.431502778,1.418089043,1.390179004,1.36613836,1.322706424,1.290074862,1.346778722,1.341967301,1.331030182,1.324750012,1.295247139,1.231165345,1.204415112,1.142960606,1.120692591,1.07810392,1.024963044,0.986050045,0.929600684,0.852196319,0.827490939,0.870255607,0.985310606,1.101003751,1.194626403,1.117116946,1.010855452,0.94856148,0.848797936,0.707628318,0.677320165,0.783969106,0.89079151,0.812670497,0.879261827,0.978881028,1.002465853,1.024617381,1.013287751,1.059885096,1.090435085,1.088792872,1.122081573,1.133477043,1.158654701,1.079440989,1.098679075,1.087988858,1.075824826,1.194641597,1.274413687,1.312313755,1.261312695,1.275986262,1.245151386,1.253333333,1.20282481,1.194847981
1.05828973,1.255064179,1.384930757,1.283998544,1.298059288,1.194801133,1.116500324,1.239253597,1.466013326,1.594549167,1.741421585,1.579965497,1.415456689,1.345879746,1.361466217,1.397368279,1.306488138,1.374773594,1.559885412,1.537738949,1.53766931,1.714261115,1.599525189,1.443925106,1.517741165,1.363209724,1.341967301,1.404406882,1.509768134,1.570836459,1.566394758,1.542609879,1.734193058,1.719743602,1.802901413,2.004335343,2.174860959,2.225206147,2.123055885,2.00736274,2.011178956,2.230189766,2.409132836,2.455456689,2.404888657,2.351105835,2.350737382,2.413915135,2.59422946,2.602914075,2.533191523,2.471871231,2.432669547,2.370450279,2.305190953,2.281977114,2.286470728,2.259783803,2.254698891,2.223972904,2.199694222,2.178042828,2.240091164,2.274511815,2.305564471,2.29600114,2.322594369,2.385592327,2.455931501,2.501314594,2.547866356,2.581333587,2.577351503,2.650364813,2.7189111,2.788856496,2.85431461,2.918988969,2.946798981,2.897312252,2.900020575,2.96367314,2.993045598,2.924934872,3.052879414,3.197796876,3.101197474,3.110573414,3.204264438,3.296282861,3.231489483,3.360538119,3.368270579,3.090117278,2.960325404,2.860580852,2.720867322,2.634761882,2.574060744,2.538871532,2.605707231,2.55662061,2.515223399,2.440835035,2.342393365,2.286698637,2.243954228,2.17344159,2.114055996,2.082390516,2.051253027,2.018389757,2.000664736,2.011693019,2.010111581,1.988010699,1.935633319,1.873367203,1.792023804,1.696571546,1.68809205,1.681053448,1.655890983,1.702387034,1.782241426,1.719779054,1.775439596,1.665223874,1.653128215,1.657110299,1.571007391,1.459463463,1.362651346,1.333796749,1.323711758,1.359213713,1.51501005,1.491026384,1.504032414,1.497574981,1.435968536,1.507104126,1.523018533,1.488752354,1.423390469,1.479830967,1.465646139,1.452384344,1.501924252,1.56420936,1.58386528,1.582728266,1.578504345,1.577778833,1.589836507,1.597214441,1.606461232,1.587591599,1.55995885,1.546201985,1.506696422,1.43865027,1.392469493,1.251513857,1.380846114,1.619801529,1.802498773,1.961798585,1.964705696,2.050260355,2.20523242,2.372141874,2.499464729,2.291673393,2.255239542,2.156264818,2.065111185,1.856910878,1.815830207,1.791270437,1.801469383,1.787991074,1.776113195,1.856975452,1.947226311,1.848285773,1.879686625,1.765263441,1.82498077,1.681411772,1.534527958,1.460034503,1.386769226,1.392597376,1.346400139,1.329329725,1.270031496,1.285878797,1.299958533,1.366185208,1.415879588,1.362563981,1.322229081,1.277011854,1.299819255,1.24806736,1.217202096,1.18686862,1.126595445,1.055820711,0.997501227,0.949623791,0.893711283,0.819550829,0.834553598,0.950430337,1.143583559,1.121773895,1.129945713,1.065446085,1.007425415,0.847493788,0.671243847,0.713261479,0.806982891,0.941527943,0.877184053,0.889453176,0.97156387,1.030303721,1.040725512,1.058655651,1.05641834,1.107039552,1.128185746,1.132262792,1.15474099,1.204521469,1.136799456,1.136175237,1.183422123,1.12432648,1.164684171,1.259302027,1.336018866,1.311950366,1.294762199,1.29035595,1.300218097,1.259284301,1.222703575
0.886272573,1.071635092,1.324860168,1.508047418,1.488435813,1.371476505,1.334713451,1.299435608,1.418490417,1.663744995,1.775082538,1.641699824,1.516629473,1.473925581,1.528426317,1.572506529,1.471741449,1.427535888,1.516892835,1.639779054,1.680923033,1.804325847,1.70342149,1.571726572,1.590042891,1.515103746,1.498218192,1.632211196,1.786189323,1.884006774,1.816373392,1.777793394,1.947387114,2.028698859,1.971353054,2.218622098,2.252671763,2.166500483,2.071341975,1.975459222,1.96856243,2.109789026,2.30377285,2.336384154,2.263819065,2.204211892,2.321532058,2.485978823,2.661708371,2.746522324,2.664445816,2.551776269,2.471623063,2.386486238,2.340898026,2.345684124,2.365338778,2.386222876,2.34720352,2.355942579,2.291515123,2.148843835,2.17437222,2.250550939,2.21578969,2.280666635,2.353220328,2.393548898,2.445150119,2.484368264,2.525722425,2.505049776,2.567486824,2.650654765,2.694095564,2.743767153,2.801866325,2.8528294,2.845766741,2.840295649,2.945211212,2.996471836,2.862085055,2.891337227,3.080357691,3.127941377,3.029247741,3.04382508,3.113474194,3.163138186,3.083488913,3.176588639,3.226561575,3.076871943,2.915238593,2.852693921,2.751047592,2.63350838,2.541439311,2.497310986,2.489454442,2.568398462,2.470594939,2.38504028,2.3011329,2.239136477,2.19014735,2.140506149,2.094579871,2.051679724,2.023020116,1.999523923,1.974125952,1.953936977,1.981148094,1.954002817,1.961579539,1.911561021,1.82654195,1.754016112,1.664081794,1.635715936,1.65491857,1.639896808,1.790197996,1.725236219,1.6908181,1.606520741,1.570411028,1.561849232,1.498896855,1.398197616,1.389834607,1.431202697,1.406226358,1.469196461,1.541914756,1.516720637,1.521675134,1.505236535,1.455910609,1.554661222,1.561964452,1.524798759,1.45069275,1.490511055,1.528789706,1.486721428,1.489024579,1.556916259,1.580004748,1.595307599,1.587042084,1.595768482,1.596060966,1.615834639,1.603141351,1.576026463,1.56847,1.492821803,1.417027998,1.412189988,1.352280202,1.382828926,1.52325404,1.659005745,1.814943893,1.991525569,2.099552095,2.105711979,2.207216498,2.337118529,2.539989554,2.394846715,2.246703069,2.088180682,1.998949084,1.907889147,1.845864869,1.784968742,1.715591852,1.718091259,1.695762468,1.76823386,1.759093427,1.74940981,1.802906478,1.859207698,1.744568001,1.574791954,1.501275976,1.538284665,1.448855547,1.317756992,1.254837535,1.247054429,1.208790972,1.199507462,1.222928952,1.337404049,1.398912999,1.318258392,1.211752528,1.164684171,1.182261051,1.251688587,1.211644904,1.17986547,1.169551303,1.122027128,1.038712312,1.006955668,0.910368928,0.843786462,0.789722552,0.917464508,1.015749173,0.96229682,0.971391672,0.916091987,0.859652755,0.722912176,0.734555814,0.794926483,0.815832107,0.967353877,0.944876945,0.885079847,0.888299701,0.933504265,1.024828831,1.075742526,1.106742003,1.092982606,1.138906351,1.168520646,1.177440767,1.232441638,1.217259073,1.180631499,1.224945951,1.200879984,1.156820031,1.218096007,1.330576896,1.385338461,1.343657629,1.336370859,1.344089391,1.303815267,1.218631594
0.933477676,1.115045503,1.341768514,1.547717582,1.641342766,1.561521295,1.553890129,1.454488707,1.469306617,1.616691832,1.84179542,1.745859488,1.713279838,1.691152367,1.757955146,1.76421759,1.587906874,1.555376604,1.628724182,1.746111454,1.831381226,1.877280914,1.799384012,1.74655841,1.695199025,1.605173544,1.637364481,1.803443331,1.978487884,2.082196793,2.074366839,2.022609879,2.123233148,2.300219996,2.242433566,2.35771141,2.304070399,2.229147714,2.146769859,1.97487552,1.920031654,2.126740421,2.284057421,2.203594005,2.130437618,2.193722995,2.32520773,2.463693082,2.658720225,2.879121283,2.734391213,2.612231771,2.517572132,2.438267255,2.411657566,2.430910846,2.45008056,2.514323157,2.486196604,2.502326259,2.324531599,2.161030657,2.139108304,2.159544181,2.202998908,2.295427568,2.340868905,2.38377285,2.418346707,2.45981609,2.469550354,2.419305193,2.546311508,2.617414178,2.656406945,2.690744029,2.717484133,2.777723122,2.760767928,2.852688856,2.963965624,2.934513398,2.754958771,2.927883766,3.137507241,3.184600921,3.013648608,2.961580172,3.065073833,3.105668297,2.986369118,3.008052166,3.046996819,3.121520662,2.959593562,2.812070335,2.728797303,2.636262286,2.544649035,2.46763085,2.423182185,2.42069544,2.435072725,2.420135796,2.343151797,2.267827738,2.204871564,2.140225061,2.092284317,2.048566228,2.013982242,1.999912635,1.981947043,1.957355618,1.936699429,1.917310669,1.886666983,1.864766155,1.82777266,1.755888768,1.712821487,1.626522324,1.592439739,1.612105788,1.782354114,1.700668851,1.627256699,1.570486998,1.516166057,1.470116962,1.420988557,1.371258725,1.411489799,1.532626181,1.520820474,1.509547821,1.557202412,1.548948293,1.534459586,1.523816216,1.484461327,1.571139072,1.588210753,1.545047244,1.501924252,1.560994571,1.522386718,1.528251587,1.55975753,1.544740832,1.582257253,1.592190304,1.598328664,1.603426238,1.596856116,1.609907728,1.592358704,1.574008198,1.572060839,1.452643907,1.377318583,1.37522055,1.383274615,1.437786746,1.531942453,1.750460725,1.874710603,1.941679249,2.157328395,2.288789073,2.356702278,2.413596062,2.5486805,2.479905038,2.219623633,2.096704493,2.02367219,1.95821281,1.846842347,1.761215517,1.705406834,1.63402181,1.595415222,1.631560388,1.656274631,1.670415143,1.774401342,1.811402434,1.632822753,1.49792824,1.403086273,1.446586582,1.453839166,1.370895336,1.213740405,1.198157732,1.159047212,1.122753905,1.193308327,1.304834528,1.420484624,1.318411598,1.194585885,1.113975595,1.105975975,1.144644604,1.143159394,1.070428438,1.091416362,1.079763861,1.02483896,1.023061266,0.971875346,0.866592596,0.784069133,0.779338746,0.80462023,0.819381163,0.789522498,0.793488122,0.714489657,0.695602298,0.861901461,0.863084057,0.899528038,0.998238134,1.055045819,0.977821249,0.962162607,0.972440055,0.957051106,1.019232388,1.094628618,1.135055949,1.141227229,1.155290505,1.207572923,1.230105566,1.279387177,1.242781128,1.267751136,1.296308184,1.254941361,1.237355618,1.275852049,1.367093047,1.39697197,1.399604324,1.380268743,1.305470142,1.296039758
1.039932893,1.219092477,1.403135654,1.501156957,1.558341959,1.638995299,1.741872339,1.680270959,1.741202539,1.729847586,1.906048146,1.947080702,1.924993748,1.868845734,1.907028156,1.791623696,1.699896491,1.653359923,1.751174841,1.883290126,1.967997721,1.942731431,1.853965782,1.829730149,1.782379438,1.73778643,1.733345995,1.843566782,1.951746514,1.985391007,1.998965545,2.062362344,2.215651678,2.335242075,2.357213808,2.435739993,2.277967175,2.135116091,2.022842853,1.93607521,1.884719624,2.051292278,2.20016017,2.082739978,2.07623443,2.27503474,2.490377475,2.639684725,2.775097099,2.956883972,2.825170062,2.742324992,2.656928604,2.553727427,2.512449235,2.573692291,2.585776554,2.639582166,2.62832724,2.530965608,2.376015067,2.217645886,2.108137948,2.12363199,2.210043841,2.272745517,2.331486634,2.359363753,2.399821471,2.429900448,2.373818274,2.422035041,2.546460915,2.595377871,2.625152968,2.615661808,2.658420145,2.719808809,2.698077647,2.807171549,2.85602393,2.846687242,2.710969723,2.95159774,3.108523495,3.16269123,2.97605875,2.916366744,3.057012171,3.130796575,2.986118418,2.887731194,2.959899973,3.099407119,3.076297105,2.966529604,2.862687748,2.72567621,2.57397971,2.490671225,2.433188674,2.371232768,2.319834133,2.289115743,2.262146463,2.218993084,2.167837551,2.133463748,2.100367504,2.086790434,2.064248928,2.05080987,2.0281772,2.012490702,2.005307757,2.01817071,2.00082174,1.941661523,1.816355665,1.78486365,1.733249767,1.690153364,1.638977573,1.544129275,1.708788756,1.619397623,1.529683617,1.474790371,1.440697656,1.398259658,1.391462893,1.402502572,1.509893484,1.576546856,1.581377269,1.558719276,1.592304259,1.573985407,1.576183467,1.54010794,1.510955795,1.586097526,1.604355602,1.548061979,1.558942121,1.591886425,1.540458668,1.568804267,1.591853505,1.545529652,1.59469984,1.596616811,1.602160075,1.605482487,1.606696738,1.60996344,1.597804473,1.585322634,1.541883101,1.428829907,1.46602219,1.435778611,1.531446117,1.567265878,1.560474178,1.664059003,1.901493756,2.064407198,2.171159964,2.201631451,2.230473387,2.285478056,2.373527056,2.468750138,2.262668123,2.178018771,2.159697387,2.024273618,1.85622715,1.719768925,1.655688397,1.605153285,1.53971543,1.544281215,1.555167688,1.623805137,1.746168431,1.826878749,1.614451989,1.488882769,1.45235269,1.332386243,1.332893975,1.3509444,1.204893721,1.144339458,1.142676986,1.096724119,1.175842869,1.274043968,1.397440451,1.347879018,1.196372442,1.080136113,1.044561987,1.05233623,1.078391339,1.007540636,1.004215691,1.027500435,0.959041514,0.926244085,0.917103651,0.846183309,0.768068626,0.724536663,0.742856781,0.773495402,0.753788836,0.735309181,0.69546302,0.738370764,0.788584271,0.878365383,0.914544735,0.94639001,1.017554722,1.011380909,1.031264739,1.054419068,1.040315275,1.017867464,1.032537233,1.121157273,1.161913806,1.200807812,1.198914898,1.268712154,1.320108257,1.288670687,1.32580346,1.358398303,1.369760853,1.362842537,1.328906826,1.307575772,1.403357232,1.457479385,1.44751468,1.354335185,1.374120254
1.153631831,1.330156529,1.413068705,1.349354098,1.40558568,1.517120745,1.729338588,1.84484814,1.929091053,1.943299938,2.000710318,2.042944463,2.020120602,2.039615719,2.028510201,1.919225108,1.856852634,1.791436304,1.888758685,2.002332273,1.976960891,1.906241869,1.878277385,1.773712549,1.860585284,1.894546318,1.857109666,1.922657677,1.971246696,1.869223051,1.926718263,2.050046373,2.146158302,2.267198455,2.243224918,2.41199943,2.253664435,2.188173401,2.09105234,1.955851416,1.829846636,1.996908029,2.107317475,1.992910751,2.065636643,2.231897821,2.379547663,2.501675451,2.718064036,2.869293323,2.779804694,2.61420572,2.611545511,2.65536236,2.643242644,2.662576959,2.65151449,2.601323774,2.568545337,2.458681607,2.343508855,2.262283209,2.072349841,2.100854977,2.151444534,2.257329978,2.303016951,2.339400155,2.364538563,2.35049048,2.292871184,2.415449725,2.505466344,2.570957378,2.557015653,2.56252473,2.648725132,2.67352674,2.631906684,2.729759587,2.711349572,2.715654527,2.676333824,2.858115632,2.974855895,3.0142551,2.887789437,2.894429198,3.068120222,3.132219743,3.050367346,2.848895431,2.881414304,3.004233417,3.035332922,2.9421395,2.868790656,2.756701011,2.639288416,2.511485684,2.439579001,2.403171739,2.331929791,2.272071918,2.221217733,2.18411788,2.150277132,2.115189212,2.081572575,2.059713531,2.04874729,2.041558014,2.03503474,2.030899451,2.04992862,2.054502002,2.031445167,1.978676543,1.827404207,1.741596315,1.711222322,1.684960828,1.699040565,1.594246554,1.544002659,1.517028315,1.470560119,1.444002342,1.481392147,1.489566497,1.514735293,1.455519364,1.498986753,1.521432031,1.578923445,1.599849327,1.609711473,1.606190273,1.613056677,1.581453239,1.51917826,1.615973917,1.617765538,1.58438694,1.570430021,1.611828498,1.550329677,1.566660652,1.615004036,1.589123657,1.588309514,1.60688413,1.610553472,1.612120982,1.616588006,1.609459507,1.587209218,1.570323663,1.479853758,1.444387256,1.461407024,1.485862969,1.601663739,1.679002263,1.724181505,1.686164949,1.7868338,1.962752006,2.006025671,2.047677382,2.140042733,2.259452068,2.369132203,2.310593672,2.25480145,2.07626102,1.984497096,1.940797999,1.839553044,1.716397132,1.595132868,1.564327113,1.523017267,1.466171597,1.480838833,1.561364291,1.775343368,1.779044363,1.576744377,1.437476536,1.403348369,1.367621037,1.216158777,1.229105297,1.154449773,1.109968188,1.083022965,1.064466075,1.191054556,1.301256351,1.270203694,1.184640172,1.135499106,1.056232214,0.98755678,0.98821012,1.009080291,0.971149835,0.917550607,0.927502651,0.915165155,0.825895573,0.789622525,0.775726382,0.794059161,0.831184338,0.828246839,0.856887454,0.798825,0.744659798,0.719321336,0.744714243,0.824087492,0.833963566,0.887262713,0.953509647,0.990065049,1.025588529,1.059358372,1.079302977,1.100292167,1.109674438,1.101752054,1.076927655,1.157277116,1.223350585,1.236308501,1.282908377,1.35987465,1.319987971,1.384881376,1.406197237,1.410461675,1.437644936,1.398700283,1.377635123,1.373018692,1.4872127,1.501457037,1.410431287,1.43276261
1.001565611,1.122560182,1.247660921,1.372517291,1.520169666,1.66487188,1.776812117,1.847957837,1.833881899,1.944930757,2.116741529,2.105986737,2.051983603,1.962370891,1.998166595,2.015981514,1.998510992,1.997865249,2.032116234,1.990441733,1.908808382,1.83801972,1.850420525,1.777800991,1.878041878,1.973286485,1.866593229,1.935730814,1.952897457,1.831806657,1.926570122,2.057697798,2.102884637,2.126735356,2.15730054,2.338226422,2.312329582,2.153015843,2.061596315,1.987933463,1.82812592,1.816745644,1.961231344,1.915163256,1.965423611,2.09345172,2.245528069,2.467785322,2.491643638,2.706706551,2.683857367,2.610323663,2.453709384,2.475180982,2.535764367,2.549500973,2.481923302,2.440613456,2.420005381,2.351717392,2.227205419,2.173994904,2.093787253,2.015402877,2.06950857,2.163316082,2.215116091,2.262626339,2.272759445,2.216831743,2.292676195,2.314728962,2.408649162,2.465808841,2.46076318,2.578607537,2.61800421,2.614638748,2.581784341,2.64544197,2.626962316,2.599960116,2.642651346,2.744168526,2.810065999,2.814096197,2.783985566,2.860016144,2.978919013,2.968130035,3.015804884,2.841964452,2.788290521,2.907533989,2.920898343,2.861067059,2.750684203,2.682981182,2.616479749,2.540646693,2.449152462,2.355986895,2.300902458,2.280699555,2.261343716,2.195058797,2.135899846,2.096228416,2.068918538,2.037021351,2.033587516,2.046082016,2.029732048,2.029694063,2.036963107,2.049296805,2.023779814,1.948030325,1.838190653,1.730681987,1.658151085,1.625922163,1.613713815,1.544940886,1.51163066,1.529974835,1.521129418,1.534688761,1.592496716,1.570683253,1.579376731,1.500009813,1.545133343,1.624391371,1.557508824,1.627918902,1.636294573,1.63268854,1.634112973,1.618927876,1.521372521,1.609303768,1.627036386,1.583818432,1.610162227,1.610126775,1.604599972,1.580612507,1.620547299,1.61565611,1.581332953,1.61196651,1.618734153,1.618294794,1.620153522,1.602736179,1.529668423,1.507900543,1.459302661,1.5277983,1.528335153,1.566447937,1.656011269,1.727072155,1.764545526,1.830064416,1.83539623,1.86971812,1.988328506,2.086914518,2.153560293,2.244154282,2.283990314,2.243360398,2.133120618,2.006768909,1.908916006,1.838388174,1.757199247,1.668215818,1.597404365,1.538054223,1.476292041,1.41088584,1.421853347,1.500706203,1.710867797,1.646160518,1.518250162,1.400227276,1.300884099,1.225596759,1.196243293,1.126468829,1.099314689,1.068834338,1.036757356,1.011066901,1.059564756,1.126819556,1.087596347,1.039701185,1.005124796,0.954254151,0.932288749,0.907716316,0.879184591,0.851315069,0.834963835,0.823027713,0.811105519,0.808018613,0.804540462,0.813573271,0.869823845,0.900514379,0.889974835,0.839818306,0.763628191,0.779322286,0.737236282,0.74855325,0.861841951,0.916583258,0.86905655,0.908931833,0.961858728,1.031277401,1.076492094,1.091404967,1.122560182,1.159392875,1.165009575,1.156066664,1.132347625,1.217232483,1.273804663,1.298079547,1.354675783,1.3694747,1.388425368,1.468467151,1.4692661,1.498200465,1.484360034,1.473906589,1.411179589,1.456617128,1.522940031,1.48064511,1.48608708
0.797381574,0.976414542,1.202753905,1.390780431,1.469725717,1.588859029,1.663377807,1.692642641,1.826064606,1.945603089,2.111693335,2.187958153,2.080586234,1.961503569,1.928161689,1.916766219,1.985729073,2.056644351,2.069958058,1.972139341,1.919792349,1.797649368,1.782564297,1.791193201,1.909438931,2.007257648,1.825240334,1.885617334,1.792125097,1.843198329,1.990074545,1.997932355,2.009437982,2.049871643,2.161420635,2.377847206,2.403119827,2.345337195,2.175316778,2.00674232,1.895251571,1.742007819,1.81683934,1.813218112,1.942269281,2.073969264,2.288015447,2.315099948,2.333649241,2.616754507,2.588663406,2.439857557,2.387385214,2.338629062,2.482613361,2.56772233,2.371665796,2.291215042,2.259838248,2.208121805,2.144933922,2.121089534,2.112740452,2.030148616,1.993396958,2.055308548,2.150135321,2.163442698,2.200280455,2.162457623,2.205573018,2.21871706,2.27522973,2.29478309,2.426551446,2.554442809,2.569912793,2.514487758,2.548117057,2.569540541,2.524723422,2.468995774,2.601130051,2.64810851,2.656162575,2.703460108,2.724697466,2.833563459,2.87159774,2.819752149,2.898255543,2.850912429,2.711724356,2.80750455,2.825974075,2.791171043,2.685565421,2.608772613,2.544464175,2.493608724,2.417319849,2.330015352,2.274415586,2.233541301,2.23200038,2.215846668,2.169954576,2.121307314,2.063888071,2.024464809,1.99410601,2.014001235,2.044858902,2.053947423,2.064053939,2.03952962,1.982675087,1.883050821,1.804444866,1.703914028,1.606641027,1.540381432,1.527840084,1.544810471,1.556899799,1.555601982,1.600549515,1.580744188,1.612571736,1.60852761,1.587520694,1.554863808,1.642020164,1.688991026,1.585967111,1.648933416,1.659307092,1.662209139,1.651388506,1.625234636,1.582215469,1.631838944,1.637379675,1.607919852,1.646889828,1.625723375,1.637731668,1.594026241,1.632948103,1.629481348,1.614854629,1.616513303,1.627897377,1.626612222,1.593220961,1.532162765,1.583196746,1.512768941,1.482467119,1.617281864,1.566597344,1.596687717,1.683984616,1.791209661,1.835896365,1.84074577,1.897160945,2.021998322,2.116459174,2.179462197,2.279594195,2.302935916,2.211649336,2.114853679,2.064666762,1.952453033,1.87854961,1.801168036,1.729471535,1.681739708,1.621176582,1.540289002,1.460142127,1.415587104,1.350246744,1.40013358,1.476159093,1.468634285,1.380496653,1.323140718,1.243637054,1.198745232,1.116424355,1.074353544,1.03761075,1.010181853,0.992987354,0.984079895,0.982736496,0.971839894,0.958089359,0.926260545,0.922431667,0.906119684,0.877984268,0.856592438,0.865377079,0.878874381,0.8638159,0.862686482,0.85650254,0.848647263,0.861279775,0.912174477,0.900543501,0.869057816,0.842042955,0.792777804,0.807975563,0.83802162,0.784172958,0.742901097,0.825620816,0.926825254,0.943964041,0.962660209,1.003602868,1.009619676,1.078654701,1.109412342,1.117770286,1.154629568,1.20150167,1.219623,1.162392416,1.204069449,1.260912587,1.341548201,1.368085719,1.401349097,1.437770286,1.465505595,1.550453761,1.515317728,1.546832534,1.579310891,1.465690455,1.483269867,1.582361078,1.53804536,1.566264343
0.837749395,1.013381448,1.187818242,1.223952012,1.345582198,1.460917019,1.562001171,1.720438726,1.858569552,1.882069544,1.971368248,2.151787664,2.020205435,1.891580963,1.816751974,1.80681639,1.890180587,1.990953263,1.951673077,1.932283051,1.804230885,1.783651932,1.737701597,1.849092319,2.037132773,1.948819144,1.78961936,1.774634316,1.763625026,1.948353196,2.034525743,1.941781808,1.978043461,2.060477027,2.152171312,2.343465806,2.558540114,2.405198867,2.187321273,2.161280091,2.013780922,1.755678584,1.712089644,1.849601317,1.917185319,2.038182422,2.189357264,2.129315797,2.329802637,2.640790086,2.611332795,2.454231043,2.309997309,2.289690581,2.508634285,2.6072127,2.465621449,2.356865613,2.288645997,2.208877704,2.143500625,2.084423975,2.051934223,2.019702768,1.990256873,2.014636849,2.064743998,2.102302202,2.119952519,2.098063087,2.091428391,2.14114936,2.168489625,2.244786098,2.372490069,2.459464096,2.529712106,2.474270611,2.453962617,2.487460235,2.403523733,2.447056962,2.551938338,2.56336293,2.578136524,2.658626529,2.698661349,2.785330231,2.779741386,2.711255876,2.744625611,2.791298925,2.681223747,2.712791732,2.724553123,2.715617809,2.622559866,2.581572891,2.506709716,2.422911226,2.381184812,2.313741354,2.218893057,2.186640077,2.181698242,2.186155137,2.161068642,2.123804188,2.107428897,2.067813178,2.011915863,1.965733821,1.955415856,2.029480082,2.081282623,2.09041546,2.058401785,1.91393761,1.716970704,1.602261368,1.546258962,1.554505484,1.590596205,1.586354557,1.568549768,1.597941218,1.607158888,1.604437903,1.628516531,1.610155896,1.576546856,1.602052451,1.688937847,1.685025402,1.613159236,1.667263663,1.68602947,1.69001282,1.672685374,1.624894038,1.612614786,1.655716253,1.647560895,1.617725021,1.656413909,1.643795325,1.651026384,1.636517418,1.625774021,1.646252948,1.629198993,1.63062596,1.636431319,1.631418578,1.560281721,1.594070557,1.587824573,1.500003482,1.529456974,1.594523843,1.587705554,1.613274457,1.671345773,1.746821772,1.806040232,1.870082775,1.946174129,1.971973474,2.064714876,2.200710951,2.336681702,2.414655841,2.279475175,2.134818543,2.048428216,1.958847158,1.871362867,1.78788345,1.718259658,1.676775082,1.578361268,1.568746023,1.543829195,1.519644208,1.352208031,1.302328791,1.34671668,1.319830967,1.279746767,1.223394901,1.164325847,1.125421712,1.069673805,1.03976576,1.053723945,1.075424719,1.079101657,1.066579301,1.049069528,1.037335992,1.011401168,0.988211386,0.99303167,0.968839086,0.969744393,0.956425621,0.96460377,0.959786018,0.946471044,0.955438013,0.954878369,0.931221373,0.934242439,0.928357311,0.899424212,0.887075321,0.880873653,0.85102765,0.848556099,0.905884178,0.870593672,0.768221832,0.819611604,0.92013358,0.985463811,0.982385768,1.01552253,1.042757704,1.030104933,1.074981561,1.137279331,1.186900274,1.231036196,1.282282893,1.237217606,1.226683127,1.266878749,1.303559502,1.361982812,1.429454125,1.491066901,1.525833215,1.572734438,1.601413038,1.603402181,1.650340123,1.526357406,1.535649779,1.622546571,1.648311729,1.691779118
0.853715715,1.027164902,1.175628888,1.24791542,1.324043493,1.474692876,1.624680056,1.728787807,1.66337021,1.695485178,1.869507937,2.161015463,2.103460741,2.016089138,1.944211576,1.771089059,1.771477771,1.87374452,1.844011206,1.87944732,1.853939193,1.721949259,1.751842109,1.880850229,2.047607743,1.955165155,1.778587278,1.663625975,1.816039124,1.922467752,1.847481759,1.918091892,2.032960765,2.111140022,2.197512622,2.352575851,2.523794059,2.44313692,2.374510865,2.269832075,2.034629568,1.866998401,1.669328775,1.725623665,1.890283146,2.101350047,1.988503237,2.082320877,2.3570644,2.478369182,2.625531551,2.432580916,2.272174477,2.245307757,2.349243309,2.546571071,2.641385183,2.559163066,2.497051422,2.338508776,2.283188832,2.174706488,2.154929016,2.115293038,2.104573699,1.984223604,2.013732808,2.02818353,2.038624314,2.068293054,2.029791558,2.049955209,2.137264771,2.212918032,2.237480335,2.34813415,2.440293117,2.447657123,2.372248231,2.402067645,2.325426776,2.452169729,2.467262397,2.480287419,2.574985043,2.603604134,2.631796528,2.694346264,2.717380308,2.645440704,2.62498077,2.69694823,2.663570897,2.621349414,2.640923033,2.595331023,2.524509441,2.50704525,2.429442097,2.387323172,2.321606761,2.256910878,2.193569789,2.140653024,2.134770429,2.150350569,2.11323299,2.058044727,2.068239875,2.072340978,2.069947929,2.034629568,1.975568112,1.938607537,2.042729215,2.100872703,2.040805913,1.919797414,1.674446607,1.553950905,1.598462878,1.622676986,1.632859472,1.643519301,1.612345093,1.631925043,1.629102765,1.647372236,1.651478404,1.63033221,1.638030483,1.687926183,1.744752861,1.712449235,1.651792413,1.702304734,1.716603517,1.708966019,1.689340487,1.624842125,1.630633556,1.670265736,1.662049602,1.63056645,1.669443996,1.667025624,1.668572876,1.662035674,1.635038539,1.663262586,1.637284713,1.655702325,1.651584762,1.623411361,1.573342196,1.62633873,1.581606445,1.538584746,1.525647089,1.56752924,1.603868129,1.636511087,1.700734691,1.749092003,1.816318947,1.887582419,1.966263077,2.03407119,2.081989143,2.171467642,2.277242929,2.40128389,2.339053226,2.192908852,2.070375892,2.011813304,1.918352721,1.862798538,1.814293085,1.698584746,1.646982258,1.645160249,1.574072773,1.566401089,1.453009829,1.339151354,1.247847047,1.239646107,1.190559486,1.162698827,1.120826805,1.091843059,1.115492458,1.137895953,1.16333824,1.150689268,1.133351693,1.107128183,1.111240682,1.082215153,1.063493661,1.041472548,1.044275834,1.029866895,1.045473624,1.015523796,1.021208869,1.025188421,1.015636484,1.027725812,1.025697419,1.004021968,0.988345599,0.962585506,0.935293354,0.949509837,0.906890778,0.907128816,0.939968029,0.960154472,0.894229144,0.798968077,0.881842268,0.949256604,0.973033886,1.007462134,1.021791305,1.062874507,1.09265467,1.093129481,1.182528212,1.266206416,1.345306174,1.380513113,1.310133422,1.281758701,1.286477692,1.357827264,1.398895272,1.413592897,1.463955811,1.532094392,1.597706978,1.664335027,1.717898802,1.686541,1.554823291,1.576341737,1.660483358,1.793094978,1.862827659
1.00373075,1.050400266,1.257224253,1.335802352,1.388857129,1.532571736,1.567207635,1.577882658,1.514791004,1.673351376,1.914597281,2.124988051,2.135004669,2.003887122,1.920760964,1.808138265,1.714362408,1.735835272,1.745559407,1.778411282,1.827200355,1.720260197,1.721741608,1.881206021,1.982949844,2.00372252,1.874830888,1.662090119,1.720383014,1.764272035,1.895085703,2.101980596,2.220816359,2.266671731,2.188445626,2.292771157,2.398694586,2.489952044,2.394146527,2.177473054,2.108403843,1.985109919,1.74804995,1.615664973,1.764727854,1.911721824,1.878171027,2.142350949,2.162110694,2.291706313,2.528487726,2.462321827,2.284409414,2.163661744,2.272698669,2.456521533,2.56995331,2.466920532,2.470565817,2.507972081,2.418550559,2.261861577,2.246319421,2.287427947,2.235239226,1.992818321,1.957862083,1.97919567,2.07234351,1.97733441,1.955148695,1.973890445,2.111713594,2.157529715,2.160024057,2.281864426,2.31344254,2.389979583,2.299191871,2.311528101,2.304157764,2.371541712,2.385480905,2.512308691,2.575676369,2.559033917,2.55854138,2.616464555,2.64187772,2.618101705,2.539332415,2.574739408,2.555500055,2.587232642,2.59515376,2.511266638,2.433809094,2.396775082,2.366515044,2.338655651,2.300119969,2.209287941,2.137740848,2.096038491,2.097222354,2.108306348,2.086858807,2.032751848,2.012088062,2.01205894,2.016441131,2.012704683,2.024164728,1.923317348,1.977816818,2.103126474,2.025977874,1.798076065,1.638559739,1.578410648,1.613236472,1.65181647,1.677884241,1.671153317,1.671523036,1.639918332,1.685345742,1.677185319,1.684812687,1.674725163,1.70837852,1.745610053,1.772196952,1.743560135,1.669934001,1.716392067,1.732521723,1.720429862,1.679431493,1.665102322,1.637345489,1.661055664,1.646328918,1.643357232,1.686145957,1.682833674,1.669599734,1.652743301,1.668702024,1.67725749,1.64976022,1.667196556,1.63573113,1.585146638,1.628040454,1.632526471,1.620347245,1.599385911,1.581207603,1.549226849,1.606314357,1.655796021,1.814006932,1.872168146,1.889267683,1.877023883,1.916616811,2.00564329,2.081375053,2.178327715,2.305441654,2.416142317,2.356267983,2.228124654,2.144640172,2.063281579,2.003518668,1.892945887,1.760426697,1.716996027,1.697661713,1.602349999,1.489590554,1.414646345,1.468619091,1.404657582,1.226099425,1.170246427,1.156037542,1.158385009,1.165821186,1.178756311,1.214717883,1.201553582,1.218686039,1.208568128,1.179284301,1.158329297,1.147604894,1.115389899,1.100157954,1.101329155,1.099776839,1.075189212,1.079525822,1.071826282,1.073839482,1.103241062,1.108524761,1.120273491,1.124139088,1.091274552,1.053764462,1.030249276,0.997569599,0.983906431,0.975216751,0.982896032,1.030426539,1.015612427,0.925564155,0.818304924,0.912258044,0.973227609,1.010651599,1.033774275,1.063210041,1.074900527,1.15154646,1.152375797,1.219677445,1.381400693,1.494284222,1.528659291,1.401209819,1.335821344,1.325789532,1.369503822,1.432229555,1.497382524,1.51807923,1.580166817,1.636031211,1.681775161,1.754195907,1.649693114,1.578822152,1.678371714,1.762529794,1.806399823,1.907359891
1.205516674,1.019151354,1.116160993,1.200578637,1.362061314,1.392030135,1.503406929,1.435192378,1.500651758,1.662081256,1.794337084,1.976193596,1.983867813,1.99792096,1.968734628,1.848882136,1.822533276,1.710271434,1.655259168,1.697027365,1.719734739,1.65298134,1.802627922,1.859854708,1.842256303,1.806018708,1.882191096,1.647265878,1.635346217,1.792872133,1.935652312,2.176448728,2.320550781,2.315786208,2.129096751,2.129153728,2.218661349,2.393320988,2.278673694,2.107107292,1.928395929,1.840931896,1.82156846,1.68526724,1.617136255,1.736912777,1.889555102,2.003332542,1.967215232,2.178385958,2.495673836,2.469400946,2.297992815,2.146805312,2.233998386,2.36014371,2.419182375,2.39660415,2.303622177,2.488996091,2.501218366,2.428168336,2.399941756,2.317381574,2.16708545,2.034047133,1.94655018,1.930857351,2.035553867,1.922717187,1.866646408,1.933694823,2.022183182,2.043074878,2.142763718,2.16745517,2.251491699,2.343765886,2.249399997,2.224721207,2.245538199,2.31246886,2.4268338,2.526303594,2.552923413,2.520900875,2.513186142,2.533259896,2.525937673,2.546572337,2.502571894,2.479837931,2.479574569,2.552867702,2.506528655,2.4430179,2.376070779,2.333564408,2.307708086,2.279925929,2.252962981,2.173352959,2.114715667,2.060612507,2.053587832,2.047669785,2.051108684,1.994501052,1.992409351,1.975923904,1.959855024,1.974277891,2.015206622,1.96811674,1.904217274,1.965794597,1.898884194,1.738727189,1.626204517,1.597094155,1.65871706,1.67216878,1.698131459,1.694898944,1.709673805,1.678708513,1.71318361,1.707597297,1.712892392,1.703831727,1.745235269,1.761746039,1.792233987,1.76621433,1.712931643,1.703765886,1.732403969,1.731791146,1.698546761,1.675855847,1.667452321,1.67111913,1.677587959,1.651112483,1.687238656,1.693691024,1.675992593,1.692143773,1.690014086,1.683955494,1.665380878,1.672819588,1.650419891,1.61825681,1.674903692,1.660961968,1.644153649,1.613970847,1.620806863,1.598118481,1.611544878,1.656897583,1.755990061,1.864090024,1.912152319,1.926164949,1.995163256,2.037223937,2.100397892,2.199047212,2.27620974,2.425392906,2.2671706,2.145147904,2.080844531,2.056568381,2.044104269,1.892155801,1.7554722,1.629792824,1.597338525,1.622095817,1.576161942,1.408358577,1.301976798,1.23803808,1.224239431,1.267062343,1.25729136,1.269008436,1.294671035,1.244295459,1.277784214,1.253499201,1.274450406,1.260508681,1.231908583,1.216606999,1.194499786,1.169455075,1.161027492,1.156179352,1.160807179,1.142364244,1.139850909,1.13765285,1.138369498,1.185436589,1.224240698,1.259566656,1.304448348,1.200434294,1.091549309,1.083068547,1.052095659,1.025565738,1.061984395,1.104374278,1.095993543,1.042766567,0.963703528,0.85642657,0.916360413,0.963996012,0.999346027,1.040928098,1.084779134,1.114279474,1.133371951,1.162789991,1.217366697,1.331689853,1.448371872,1.509542757,1.428764066,1.365414115,1.385121947,1.419165282,1.481421268,1.532917399,1.578276435,1.634385199,1.730869379,1.79502841,1.915384835,1.746564741,1.635733663,1.717227735,1.886178244,1.918554041,1.912551161
1.301998322,1.187171233,1.118342592,1.141767881,1.247820458,1.337861134,1.372974376,1.351620531,1.44026083,1.535488976,1.755318994,1.859486254,1.710568982,1.736589906,1.890778216,2.008411123,1.947089565,1.848219933,1.710443632,1.620191507,1.623593688,1.663254989,1.783767153,1.676843455,1.719394141,1.637280914,1.745516357,1.582834623,1.654337401,1.880063941,1.975550385,2.007450105,2.197311302,2.180578953,2.040229809,2.024440751,2.160988874,2.387376351,2.265058639,2.09894307,2.05324217,2.055176867,1.915758353,1.757301806,1.564601871,1.618897488,1.738861403,1.778493582,1.964457528,2.209974202,2.354082586,2.457035595,2.276854217,2.14724467,2.101289271,2.246071253,2.301358277,2.236916892,2.221855879,2.469205957,2.504904167,2.566527072,2.549882089,2.363220487,2.216079642,2.119784119,2.00762357,1.882774797,1.828734945,1.783365779,1.817807955,1.891215042,1.942921355,2.028355729,2.014762199,2.122345568,2.237481601,2.277906399,2.189721919,2.146648307,2.281558014,2.346352658,2.427782157,2.512371999,2.524033363,2.50977763,2.475744425,2.461665954,2.434841017,2.467718215,2.468128452,2.412993368,2.437720273,2.465616384,2.420710634,2.39720811,2.33218429,2.283315449,2.242970419,2.222433249,2.21389551,2.136616495,2.074544102,2.044557555,2.017483184,2.005015273,2.024188785,1.98093158,1.958571135,1.955070193,1.95202507,1.958747131,2.017708561,2.032727791,1.886342845,1.812911701,1.737293892,1.672342244,1.613452986,1.653452353,1.701900828,1.700681512,1.718077331,1.730050172,1.729900764,1.733697988,1.702841587,1.738010541,1.736355665,1.742505421,1.761443426,1.783185984,1.805854106,1.774277258,1.750946932,1.738985487,1.737430638,1.735137616,1.681158539,1.669716221,1.692585664,1.687986959,1.687883133,1.667694158,1.693431461,1.70311128,1.703537977,1.693130114,1.699367235,1.694673567,1.676690249,1.682123356,1.647729294,1.645557824,1.69203235,1.676162259,1.672137125,1.64108067,1.651854455,1.615540889,1.632796164,1.667078803,1.710929839,1.764939303,1.835460804,1.900361806,1.97177342,2.04219616,2.123707959,2.229438931,2.319770824,2.398795879,2.232051026,2.091988035,2.020077553,1.949885254,1.866031053,1.796274314,1.709925771,1.611273919,1.504780716,1.465292879,1.456732349,1.432240951,1.284756976,1.256516468,1.316547806,1.345870883,1.314188943,1.339979425,1.348841302,1.288506085,1.333623285,1.31625912,1.336008737,1.306885713,1.287956571,1.274420018,1.249513318,1.229257237,1.230317016,1.214160771,1.236371809,1.219605274,1.203612364,1.191241948,1.226579301,1.280424165,1.379729358,1.414220914,1.305633477,1.186873684,1.151616099,1.180185809,1.137090673,1.122200592,1.141752687,1.140753684,1.08137442,1.011198582,0.93641011,0.877884241,0.962090436,0.97438235,0.997524018,1.039627748,1.083877625,1.123180602,1.174828672,1.19780194,1.241544086,1.291856354,1.344922527,1.383435418,1.381693177,1.415720051,1.437367646,1.439867053,1.533968314,1.586801513,1.636836491,1.686166216,1.776382888,1.925683807,2.087919852,1.870606967,1.718766124,1.717235332,1.88921577,2.000611557,1.914794802
1.387418768,1.477689885,1.30696928,1.177179938,1.160808445,1.218745549,1.26023519,1.38070557,1.49723185,1.577159679,1.674761882,1.680373518,1.613780922,1.685547062,1.796808635,1.962727949,2.008859345,1.858293528,1.753131064,1.749370559,1.618534099,1.582723201,1.567129133,1.533604925,1.530511688,1.519925296,1.640208284,1.509549088,1.690558536,1.919080765,1.81671399,1.982924521,2.089789975,1.969769083,1.954343415,1.974588101,2.161457354,2.268943228,2.357269519,2.303929855,2.275522213,2.16274251,2.023139136,1.835876106,1.657193865,1.567510248,1.544065967,1.720420999,1.883705427,2.133401706,2.118978839,2.375226248,2.311980121,2.133957552,2.047988858,2.174839435,2.135717519,2.197453112,2.168545337,2.384414795,2.322942564,2.401689062,2.579196303,2.480488739,2.33756042,2.269528196,2.156473735,1.976798822,1.968099014,1.827820775,1.756314198,1.856823513,1.88793188,1.952615102,2.037765855,2.095176234,2.155197442,2.160122818,2.08917462,2.149844104,2.24393397,2.304549008,2.40944178,2.488996091,2.498284665,2.483622493,2.466403938,2.425311872,2.396714306,2.371688587,2.391240682,2.364662647,2.387551082,2.390329044,2.345885444,2.339700236,2.296148014,2.223146099,2.201079404,2.167847681,2.151434405,2.092074134,2.022008452,2.002400646,1.983338556,1.975155342,2.001313011,2.011608186,1.955361411,1.953101309,1.95041451,1.96138455,2.01027365,2.063851352,2.03125271,1.903447446,1.732188722,1.6429356,1.666032952,1.707944226,1.721021161,1.72163525,1.73385246,1.746569805,1.755898897,1.762586772,1.721023693,1.770021683,1.76021778,1.769721602,1.777624994,1.80614659,1.804158714,1.786461548,1.769872276,1.75258788,1.750268268,1.738132092,1.700637197,1.72146685,1.708848266,1.706647674,1.706262761,1.683481949,1.707920168,1.718385009,1.707818875,1.709234446,1.715106912,1.695383885,1.693160502,1.689025212,1.667088932,1.640928731,1.704568634,1.698240349,1.685419179,1.671510375,1.675893832,1.644547426,1.627561844,1.681297817,1.720514695,1.807601412,1.887750819,1.971170726,2.040690692,2.14150895,2.196428786,2.265553709,2.354877736,2.404739249,2.209327192,2.054414637,1.975702325,1.916526914,1.797407531,1.718398936,1.653543516,1.590712692,1.555482962,1.494046183,1.433952804,1.354275675,1.283587041,1.338128294,1.388424101,1.408169919,1.472014941,1.485198234,1.447885665,1.359364386,1.396200877,1.387126284,1.396990963,1.362303151,1.34311951,1.334586835,1.299431809,1.297021034,1.301309529,1.280664736,1.325118465,1.311523669,1.279076967,1.274436478,1.323986515,1.361234509,1.38908124,1.318539481,1.260575788,1.222327525,1.168139531,1.143586091,1.087388696,1.061025909,1.045093775,1.047142428,1.030843107,0.975173702,0.899977526,0.912336546,0.94454521,0.991316019,1.013830936,1.045930709,1.077720273,1.112228289,1.156933985,1.192135859,1.220408021,1.255338936,1.301571625,1.31575772,1.34991121,1.40139088,1.476286976,1.513119668,1.523942833,1.60331355,1.67437317,1.766799297,1.855934666,2.083755441,2.22984537,2.003164142,1.808662457,1.755201241,1.8903148,2.068350031,1.998812339
1.513233623,1.533420066,1.345028884,1.368212336,1.377562952,1.310075178,1.384786414,1.470184068,1.558226738,1.455899213,1.435633003,1.499095643,1.533758131,1.633059526,1.711058987,1.856550021,1.891487267,1.905184622,1.90950224,1.781419686,1.673314657,1.716154029,1.669356631,1.621805866,1.573352326,1.512538499,1.482926737,1.471771837,1.668583005,1.676440815,1.735154076,1.953440641,1.920950889,1.847605843,1.834837852,1.968645997,2.070970989,2.122064479,2.283372426,2.33486729,2.33201589,2.114953706,1.985118782,1.875130969,1.808380102,1.676989064,1.482971052,1.600982543,1.860248485,1.943558236,2.045693304,2.239772091,2.305346691,2.213329535,2.084793695,2.008216134,2.017165377,2.099259611,2.099850909,2.191484418,2.242462688,2.483002073,2.504557238,2.540956903,2.391595208,2.250210341,2.173435259,2.065778453,1.912290331,1.704606619,1.739194404,1.778169444,1.820318757,1.940638463,1.956026146,2.011585395,2.059114635,2.038780052,2.064481902,2.155103746,2.253230141,2.378962696,2.42860263,2.472023171,2.462271181,2.456632955,2.434391529,2.406895526,2.367701439,2.334369688,2.32544197,2.328188278,2.307539686,2.33413798,2.284295459,2.26787332,2.224128642,2.156187582,2.152029502,2.132553377,2.088289572,2.034820759,2.000239305,1.970681987,1.961706155,1.952611304,1.981327889,2.002662742,1.956575661,1.949034392,1.947441559,1.95872434,2.025610686,2.054876786,2.00836934,1.838749031,1.665697419,1.681540921,1.736603833,1.722626656,1.725118465,1.740984759,1.748917272,1.764977288,1.781705839,1.787211117,1.744608518,1.796952978,1.785643607,1.790090372,1.811013722,1.822430717,1.815080639,1.804985518,1.790681671,1.76680183,1.764192267,1.758329931,1.7243613,1.738076381,1.727978728,1.729365177,1.727291202,1.718668629,1.73820553,1.730524983,1.715940047,1.720521026,1.722467119,1.705812006,1.707547916,1.709778896,1.692519823,1.657642087,1.714825823,1.712442904,1.697695899,1.706027254,1.69671209,1.678107086,1.645190637,1.684796227,1.759955684,1.811193517,1.861196841,1.929516484,1.978619565,2.053801814,2.120146242,2.20200497,2.294348796,2.392774006,2.203445864,2.079779688,2.003833943,1.921537122,1.857933938,1.823062533,1.751750946,1.651674659,1.568942279,1.513646392,1.437030847,1.34483896,1.322650713,1.412980074,1.439973411,1.494027191,1.605781302,1.699070953,1.584110916,1.459341912,1.467285821,1.461723565,1.460421949,1.420122501,1.43246886,1.406917684,1.37413798,1.371680357,1.359935426,1.364884858,1.387929032,1.390733583,1.39173132,1.394416853,1.460868905,1.510991248,1.430536695,1.342140766,1.255714987,1.20220439,1.169757688,1.101502619,1.066475476,1.036133137,1.003147049,0.986709716,1.017724388,1.016477217,0.938441036,0.938538531,0.937201462,0.950070747,0.984635741,1.019126031,1.0418448,1.080664103,1.113938876,1.161611193,1.200482408,1.215710555,1.256221452,1.291869015,1.340018676,1.393274773,1.452811041,1.542446544,1.587237073,1.605212795,1.695564946,1.778870899,1.888686514,2.090248326,2.30663438,2.098201098,1.883378757,1.806025038,1.868032857,2.042048019,2.101656458
1.404280265,1.578081446,1.569560167,1.603740247,1.632996217,1.54481427,1.580568191,1.499661618,1.408329456,1.273476726,1.322383553,1.444140354,1.499989554,1.569420889,1.646264343,1.773585933,1.855158508,1.909051485,1.905177025,1.761505468,1.735644081,1.882836839,1.763066648,1.782739028,1.701248754,1.633212731,1.550128357,1.409723502,1.474461168,1.675654527,1.839331466,1.879032018,1.709139484,1.746740737,1.804941203,1.992530902,2.12857889,1.972053242,2.118183689,2.164413845,2.201251602,2.177222354,1.97496795,1.856718421,1.80556922,1.719799313,1.462950477,1.580299764,1.738704398,1.781417153,1.970847855,2.045925011,2.134067708,2.304303373,2.214853996,2.117111248,1.989319912,1.905387209,2.021361442,2.047904025,2.299451435,2.408454173,2.365489451,2.375668139,2.180900559,1.987166168,1.87089312,1.78461295,1.717979836,1.671819318,1.869134419,1.985875948,1.977158413,1.85376193,1.869079974,1.924979821,1.96171122,2.035352547,2.101700774,2.135739044,2.22657487,2.299012076,2.409683617,2.46694459,2.447458335,2.432774639,2.397832328,2.350586708,2.330512954,2.302851083,2.27537154,2.265381511,2.272165614,2.263765886,2.239389709,2.211889907,2.151149518,2.115365209,2.08493044,2.073328585,2.037320165,2.021907159,1.995124005,1.966168115,1.953659687,1.943380973,1.934869823,1.951391988,1.953993954,1.94630581,1.944872513,1.953108906,2.014286121,2.028348132,1.908705823,1.716332558,1.726316256,1.768319959,1.756595287,1.747276324,1.738111834,1.754725163,1.767267778,1.778718959,1.798830698,1.810036244,1.783749426,1.821117706,1.81721539,1.793012677,1.820346612,1.845046927,1.835105012,1.833713499,1.811134008,1.796865613,1.787255433,1.777485716,1.756861181,1.747252267,1.754992324,1.751331846,1.751177374,1.739036133,1.753651457,1.739917383,1.743594321,1.730882041,1.737875061,1.727182312,1.715612111,1.724014371,1.710094171,1.664479369,1.722874824,1.725186838,1.727720431,1.72681006,1.698466993,1.706765427,1.679282085,1.671753478,1.721713752,1.780648592,1.824681956,1.880523559,1.962123989,2.053538452,2.160292484,2.236444613,2.307329503,2.379424845,2.213566307,2.115934983,2.01939509,1.964077679,1.955341152,1.957741798,1.802224016,1.704871247,1.588174034,1.509787126,1.443127424,1.348075273,1.395660225,1.450577529,1.547128816,1.578985487,1.61865945,1.738772771,1.599987338,1.58888815,1.545977874,1.534722948,1.526071253,1.484717092,1.491173259,1.45047497,1.461743823,1.448469367,1.439441622,1.474009148,1.478426792,1.520297548,1.542146463,1.564367631,1.640314642,1.610130573,1.476642768,1.388391181,1.300247218,1.185836697,1.120392511,1.111372363,1.089934951,1.04403273,1.010771885,0.987425099,0.96522419,0.954021177,0.972101989,0.99217701,0.982623807,1.020154155,1.037065033,1.049503822,1.08344713,1.096382255,1.146886979,1.185975975,1.220882832,1.250233765,1.284949433,1.333063641,1.379292531,1.435384835,1.502419322,1.564096672,1.631540129,1.677624678,1.694679898,1.786981941,1.887467198,1.999301078,2.154021177,2.094562145,1.966131396,1.901344349,1.868035389,1.990946932,2.152177643
1.329538642,1.617053954,1.825060538,1.740128832,1.567943276,1.474489024,1.42602029,1.346702752,1.174585569,1.141263948,1.267558679,1.375380086,1.456775398,1.537426206,1.64068816,1.724128326,1.78238197,1.788375987,1.92215501,1.891930424,1.800865423,1.944835794,1.952051659,1.957284713,1.797379675,1.666704018,1.566420081,1.515088552,1.409469003,1.644522102,1.835088552,1.83420477,1.610607917,1.702912492,1.867195923,2.018596141,2.070786129,1.939431809,1.954776443,2.003974487,2.044438536,2.17283763,2.040175364,1.837037178,1.686639761,1.553125366,1.420085783,1.496577244,1.603809886,1.76255765,1.846066189,1.864492664,2.088721333,2.352113701,2.353682478,2.230016302,2.111452764,1.86109808,1.898082712,2.158680658,2.352862004,2.268960955,2.268308881,2.269856132,2.028393713,1.796303436,1.641758068,1.635779244,1.661407657,1.736416441,1.918343858,2.132415365,2.042858364,1.944274884,1.947116155,1.973448554,1.984517354,2.143471503,2.170133105,2.188755836,2.227944859,2.287934413,2.430317016,2.510040992,2.502627606,2.490174889,2.456697529,2.407509615,2.363647184,2.359885412,2.311498979,2.238999731,2.214705854,2.206541633,2.182898564,2.152732222,2.105246031,2.076506655,2.049230964,2.032313755,2.01852397,2.006533403,1.986669832,1.976073311,1.957734201,1.932321036,1.912216894,1.897311619,1.903751326,1.9377782,1.942896032,1.92126743,1.909400946,1.939284934,1.807911622,1.748437396,1.793030404,1.790530997,1.784478736,1.771998164,1.756834592,1.761285156,1.785874048,1.796357881,1.812064638,1.826270991,1.826102591,1.844206195,1.843827612,1.817876327,1.834360508,1.861708371,1.857260339,1.844988684,1.829427536,1.824322365,1.81766108,1.798558473,1.786423563,1.770597787,1.778392289,1.775074941,1.755475998,1.754611209,1.766985423,1.752304259,1.756959942,1.75308295,1.752551161,1.741871073,1.739959166,1.735755504,1.715727332,1.681632085,1.690870013,1.729726034,1.742209139,1.745735404,1.725557824,1.724593008,1.704006457,1.715390532,1.714742257,1.785955083,1.853942991,1.894367789,1.954169951,2.009670956,2.094687495,2.181331054,2.299132362,2.404691135,2.357089724,2.177754143,2.085268506,2.076314198,2.076835858,1.997579096,1.797964642,1.696576611,1.620720763,1.55134514,1.489181584,1.374736875,1.480003165,1.518728772,1.593650191,1.729909628,1.794805565,1.790536062,1.727538104,1.657069781,1.628187329,1.627369387,1.582377538,1.559377681,1.546916101,1.56242407,1.556374341,1.560412136,1.548892582,1.596910561,1.588626054,1.623059367,1.581406391,1.579003213,1.546748967,1.443345204,1.383115078,1.335223715,1.293037684,1.193372901,1.109123657,1.068124021,1.049036608,1.030251808,1.004009306,0.999068737,0.983268284,0.965387525,0.992080781,1.015259168,1.000452653,1.023880474,1.042182866,1.061113274,1.097330611,1.147468148,1.155472833,1.185463178,1.223602551,1.268995774,1.295828308,1.335579507,1.379611604,1.41797129,1.484471456,1.552102306,1.628277226,1.726848045,1.780207967,1.784372379,1.859897757,1.956740262,2.089324027,2.158483136,2.084599972,2.008438979,1.952377063,1.948412706,2.06368042
1.427054746,1.653453619,1.766135828,1.569536109,1.306084232,1.22416726,1.197613282,1.19403004,1.067637814,1.065297944,1.175164206,1.286135828,1.390894386,1.487362107,1.571618948,1.66290173,1.73102765,1.713640694,1.864112815,1.910232816,1.885636326,1.971215042,2.148647579,1.987966383,1.773092129,1.699878765,1.714199073,1.63407119,1.424031148,1.461209503,1.713239321,1.610000158,1.546567906,1.80484624,1.955043604,2.041920137,1.928499755,1.889287941,1.802539291,1.845038064,1.963894085,2.063338556,2.124246079,1.872483421,1.67573936,1.537243879,1.400662837,1.424978238,1.51333365,1.599201051,1.712511277,1.916463606,2.100727094,2.305687289,2.380863207,2.241216783,2.070992514,1.847778042,1.89515281,2.120864156,2.261550101,2.174168368,2.159136477,2.173829036,1.90592786,1.702637735,1.577586376,1.752606872,1.861557697,1.835843186,1.932932593,2.07830714,2.080048114,2.002515867,2.066084865,2.134598231,2.061560863,2.073781872,2.134458953,2.194282639,2.246971495,2.344658532,2.512789833,2.560129149,2.547473846,2.526578352,2.489502556,2.449853916,2.415895415,2.371392305,2.297120428,2.288062295,2.261417153,2.211732903,2.183323995,2.152499248,2.12758875,2.125033632,2.078065302,2.048316794,2.041935331,2.030094171,2.011142238,1.999311207,2.003480683,1.984607252,1.957838026,1.934981245,1.910149249,1.877958312,1.871278034,1.869658611,1.849688682,1.806792333,1.763614896,1.845743317,1.822763718,1.812757229,1.80541728,1.796854217,1.780949939,1.777222354,1.794730861,1.815051517,1.82306,1.83894402,1.846765111,1.857849105,1.87225931,1.862646598,1.841430765,1.867609958,1.873655888,1.860552364,1.865703116,1.849446845,1.852849026,1.836371176,1.797913996,1.797128975,1.800876818,1.78716047,1.78033585,1.776196762,1.780819524,1.769998892,1.766662552,1.771232135,1.765681275,1.758507193,1.749193296,1.748666572,1.733625817,1.718466043,1.69768577,1.709319279,1.761401643,1.758253961,1.748189228,1.723134387,1.711191935,1.701927417,1.74110631,1.789899182,1.859928145,1.944192583,2.06361458,2.088150294,2.123214156,2.183773483,2.258488517,2.356993495,2.475248089,2.371874713,2.224494563,2.083284428,1.986278588,1.951887058,1.883578811,1.72254942,1.641143979,1.5511109,1.491859519,1.415422503,1.624902901,1.622199642,1.671899087,1.811580963,1.93594986,1.976299954,1.823628508,1.750587342,1.704980137,1.695880221,1.643830777,1.647192441,1.638643306,1.693504898,1.6806698,1.677528449,1.666426729,1.715424719,1.752110536,1.658785433,1.575831474,1.487425415,1.442358862,1.450471171,1.323045756,1.252392574,1.202325942,1.158334362,1.111705364,1.075629837,1.052675561,1.032581549,1.017775034,1.004946267,0.993258313,0.989613029,0.987598563,1.027282655,1.042783027,1.045347008,1.079837298,1.088193976,1.11198392,1.144982669,1.174199389,1.215948594,1.250124875,1.272700568,1.314589051,1.354168052,1.382765617,1.436504123,1.493406771,1.566679645,1.650680721,1.781017046,1.932786984,1.946728709,1.891639207,2.011848757,2.090233132,2.216075843,2.236409161,2.087709669,2.100453603,2.019265942,2.016408211
1.325390691,1.508246205,1.57959831,1.340503616,1.18005033,1.056656379,1.000913537,1.054110125,0.987427631,0.996086922,1.105194752,1.227227577,1.342681417,1.367935046,1.458901287,1.539215295,1.629283826,1.618416346,1.769919124,1.915469667,2.044533498,2.114629568,2.191270437,1.987075004,1.904464175,1.79892566,1.630023266,1.547107292,1.489790608,1.38185398,1.574685596,1.430479718,1.547663137,1.820123767,1.981765981,1.943341722,1.852657835,1.751566086,1.680674865,1.823918459,1.831897821,1.901772312,2.04724562,1.921477613,1.763408512,1.576945697,1.40004115,1.365105171,1.458074482,1.615376288,1.731677192,1.924846873,2.150464524,2.212940823,2.307067407,2.101096814,2.002357596,1.853818907,1.772833832,1.993637529,2.088214868,2.040638779,2.082694396,2.091666429,1.877437918,1.68035959,1.551675609,1.736468354,1.882840638,1.93238561,1.895968219,2.011256192,2.108887517,2.09692987,2.14352215,2.182350316,2.082646281,2.150643053,2.194867607,2.245545796,2.300840416,2.345860121,2.441307314,2.555348116,2.587307345,2.556143266,2.527973664,2.478450216,2.417926341,2.347322539,2.33522055,2.330293908,2.302720669,2.280010762,2.242707057,2.200232341,2.161135749,2.119232072,2.088994825,2.07378567,2.066798981,2.047081019,2.037237865,2.037873479,2.04665812,2.046485922,2.013756865,2.001935964,2.001256034,2.027102227,2.02588671,1.998084295,1.855815647,1.954913189,1.845078581,1.85808841,1.847015811,1.850380007,1.832552427,1.822851083,1.808172451,1.803350901,1.809736163,1.833804663,1.84204612,1.854790054,1.870086574,1.869918174,1.891988668,1.900019942,1.881262998,1.887741956,1.890802273,1.890251492,1.899518541,1.867004732,1.872435307,1.852802178,1.824499628,1.825650571,1.813142143,1.797917794,1.798279917,1.795671621,1.789399047,1.791416045,1.787194657,1.791817419,1.785977874,1.775315512,1.763132488,1.760211449,1.758009591,1.740609974,1.744428723,1.71948024,1.757070098,1.771018154,1.761187661,1.742805501,1.732016523,1.718345758,1.743433519,1.824736401,1.876283177,1.943503791,2.062025545,2.199484038,2.247446307,2.280155105,2.339587547,2.404087175,2.503293607,2.321218049,2.224152699,2.118115316,1.992462529,1.885389424,1.807355776,1.751016571,1.692185556,1.580013611,1.498998148,1.473879999,1.737287562,1.727981261,1.742082522,1.917111881,2.087184211,1.999886045,1.910545558,1.839969612,1.7986585,1.756630739,1.753759081,1.737609167,1.751288796,1.766054793,1.865829733,1.813737239,1.782750423,1.809465204,1.766026938,1.661516547,1.567240555,1.525776237,1.430474653,1.32207081,1.264583195,1.228268363,1.187078803,1.152872133,1.131039678,1.108917272,1.117119478,1.082180966,1.083074878,1.05497618,1.022348417,1.009891901,0.996199611,1.00936771,1.024955447,1.03817166,1.062931485,1.098620832,1.160931263,1.161522561,1.175931501,1.21255401,1.251612617,1.298366966,1.336346802,1.3746761,1.422568729,1.467013595,1.515022712,1.580635297,1.67598373,1.813533387,2.038529351,2.079774623,2.006249782,2.008593451,2.074037637,2.202616527,2.282464587,2.20501464,2.203057151,2.13270405,2.07258788
1.120709051,1.34443632,1.445253312,1.20823386,1.035089818,0.925771806,0.910628492,0.904125477,0.867886615,0.963912445,1.133252932,1.230475286,1.212237469,1.252043113,1.349437665,1.436808002,1.507014229,1.518075432,1.586920532,1.792342877,1.96801798,2.151666113,2.284247345,2.086958834,1.892880047,1.75280566,1.766254847,1.674474463,1.563214156,1.416346802,1.383817799,1.441753636,1.643682636,1.815170536,1.968972667,1.903500625,1.81507684,1.724408148,1.627827738,1.721804916,1.732863587,1.881389614,2.002576642,1.87684662,1.63670481,1.536410743,1.506111454,1.366092778,1.361913173,1.478477439,1.702368042,1.90848551,1.891161863,2.058619565,2.159901239,2.080320339,1.985820236,1.851709479,1.696696896,1.808367441,1.920715382,2.046611272,2.041817578,1.833215897,1.691363816,1.539660985,1.589576943,1.804052356,1.824598389,1.819266575,1.860143393,1.914527642,1.964297992,2.039542282,2.160562177,2.215841603,2.2011731,2.183430353,2.19571467,2.245000079,2.314935347,2.380266844,2.47978222,2.580148458,2.625946853,2.592146622,2.552020638,2.473196904,2.41609167,2.383964041,2.387226944,2.344133074,2.298738585,2.261541237,2.222266116,2.184534448,2.147694158,2.130261621,2.127728028,2.097926341,2.085564788,2.075344317,2.078941487,2.088868208,2.097773135,2.083714923,2.054309545,2.038295111,2.036070462,2.038125445,2.023178387,1.908742542,1.931451181,1.943478467,1.877765855,1.886403621,1.876656696,1.879026953,1.859687574,1.849531678,1.84111549,1.833110805,1.826148173,1.853561876,1.869663675,1.879515693,1.893229508,1.896231581,1.911114065,1.923398382,1.913069022,1.915182248,1.917118212,1.928038871,1.914184512,1.898242249,1.880106991,1.860290268,1.85633604,1.849310099,1.821454505,1.823541142,1.815480746,1.811530317,1.802864695,1.812314072,1.811964611,1.809494326,1.804327113,1.793477359,1.78143488,1.779831917,1.774131649,1.754765681,1.759163066,1.733672665,1.752001646,1.774909074,1.770823164,1.768736527,1.758493266,1.737496478,1.749138851,1.79489293,1.88434484,1.965467926,2.076202776,2.160379849,2.224046342,2.32953421,2.430967824,2.497178038,2.560706519,2.466678695,2.373799281,2.158402102,1.998765491,1.906402672,1.786074102,1.67523796,1.619222892,1.561696026,1.509122391,1.539945872,1.658658816,1.795303167,1.848551667,1.892568571,2.023931754,2.184360983,2.11931184,1.998243831,1.884841176,1.855150911,1.902353481,1.881908741,1.845987687,1.872163082,1.908894481,1.850162227,1.716110979,1.682591836,1.659703401,1.637470839,1.568345916,1.461518446,1.40413339,1.351938338,1.315557666,1.304448348,1.263746261,1.215073675,1.206795499,1.18162797,1.188912207,1.17570739,1.16702784,1.134773594,1.086604941,1.044001076,1.004976655,1.034460535,1.043231249,1.050409129,1.053527689,1.071134957,1.110973521,1.141686846,1.169113211,1.210352152,1.246921482,1.300904357,1.350241679,1.394502952,1.457021034,1.510876027,1.556388269,1.630555054,1.715871674,1.798720542,1.883663644,1.931332162,2.044265071,2.125161515,2.147568808,2.212417897,2.309817514,2.394056629,2.33895953,2.224771853,2.134894513
1.033295665,1.219990187,1.294896412,1.045678743,0.962660209,0.830352468,0.826816074,0.757764589,0.805338145,0.95660415,1.026335565,1.064953548,1.083112863,1.182388934,1.250713641,1.347392811,1.417467357,1.490985866,1.523849137,1.706821139,1.954142095,2.21506038,2.207106342,2.136380989,2.020475128,1.918355254,1.900523875,1.832366301,1.725656585,1.589221151,1.352429609,1.505629046,1.753337448,1.917964009,2.033972429,1.929744393,1.803267335,1.749069212,1.642264533,1.587481443,1.675172119,1.809423421,1.876668091,1.967015178,1.805490717,1.735236377,1.703710175,1.472761977,1.302425019,1.468072108,1.712937974,1.6912372,1.778948135,1.933668234,1.96591235,1.848966969,1.835752022,1.736424038,1.639346027,1.873549531,2.064866815,2.127067091,1.90243958,1.670581011,1.499846478,1.51740943,1.68978491,1.655351598,1.708957156,1.742059731,1.772812307,1.824857952,1.870819683,1.981572258,2.058504345,2.117279648,2.207265878,2.254407673,2.282521564,2.29033126,2.325839545,2.43163889,2.505121947,2.561444692,2.671828815,2.646918317,2.568911258,2.507442825,2.471025434,2.439608122,2.394847981,2.357245462,2.322208189,2.277367013,2.241320608,2.21476663,2.198182422,2.184975072,2.152856306,2.123524366,2.115798237,2.115179083,2.135379453,2.138120697,2.144780716,2.19054999,2.103278413,2.065447984,2.071745881,2.065688555,2.004058054,1.926219394,1.986121583,1.933004764,1.907658706,1.912804394,1.907280123,1.905422661,1.886877166,1.875263916,1.865224507,1.859501448,1.848174351,1.86789991,1.892181125,1.906948388,1.91440609,1.922337338,1.925797762,1.944783882,1.932457781,1.942622541,1.945346058,1.939909153,1.913919884,1.919591029,1.888740959,1.894182929,1.874297833,1.866051311,1.842343668,1.838898438,1.840063308,1.823551272,1.824023551,1.82359812,1.833100676,1.826493835,1.82243958,1.814745105,1.80535777,1.798238134,1.790304354,1.778427742,1.778212494,1.751729421,1.773863223,1.786390643,1.788826741,1.788111359,1.752471393,1.735047719,1.767176614,1.809708308,1.8617185,1.927322223,2.012898406,2.103770951,2.200557745,2.267703654,2.388641248,2.523240745,2.509459823,2.305327699,2.227994239,2.086832218,1.995865977,1.875729864,1.784082427,1.752318187,1.678879445,1.619683776,1.537321115,1.625285282,1.778155517,1.830540493,1.876738996,2.001871389,2.039118117,2.228723549,2.14646598,2.02866214,1.962292389,1.929720336,2.061940712,2.009538009,1.871633826,1.85649431,1.817675008,1.725071617,1.636013485,1.551980754,1.487962268,1.549885254,1.572103889,1.510113796,1.465571435,1.41170758,1.384322998,1.361021794,1.330445215,1.286368802,1.272281468,1.26256493,1.261365874,1.215407942,1.169196778,1.147466882,1.141080354,1.085985787,1.034278208,1.039473276,1.067221246,1.08420936,1.094596964,1.113203235,1.11533039,1.147668202,1.173038317,1.208027476,1.24772423,1.29511166,1.348629853,1.397830429,1.456001773,1.516238229,1.576536727,1.629347135,1.701366507,1.782570628,1.872706266,1.983501891,2.044500578,2.146125382,2.264900369,2.306638178,2.359002896,2.509478816,2.472896824,2.287197506,2.077505658
0.95842236,1.202331007,1.150423373,0.905246031,0.828063245,0.741914756,0.73365937,0.688989127,0.780384597,0.869646582,0.911067851,0.946985107,1.046565057,1.073743254,1.152706266,1.269877024,1.390908314,1.428108194,1.50299416,1.672100407,1.877617714,2.192551794,2.118610386,1.976987481,1.983424655,2.050267952,1.965643923,1.929988763,1.867858126,1.660428913,1.382231296,1.416273365,1.705099156,1.955927386,2.070092272,1.973050979,1.861290537,1.739348875,1.61989016,1.514344048,1.619288733,1.728843518,1.791264106,1.832476457,1.648112942,1.604806356,1.613515028,1.412634411,1.266344428,1.468087302,1.535233211,1.612171628,1.667281389,1.760487473,1.708944495,1.64191254,1.602379121,1.566868303,1.608927718,1.753275406,1.889565231,2.060339015,1.85888356,1.615496573,1.471269171,1.541265214,1.588415871,1.711156482,1.872644224,1.970393302,1.939268474,1.973432094,1.93824668,2.005673678,2.103521517,2.188288622,2.22346264,2.307790387,2.396954877,2.410050805,2.374379184,2.437594923,2.569772249,2.68977668,2.72904927,2.674481427,2.641186395,2.573071871,2.5229356,2.479596094,2.432891126,2.405588845,2.359851226,2.327609642,2.297629426,2.270957694,2.259517908,2.235074625,2.18760616,2.151139389,2.152381495,2.158819936,2.183136603,2.191527468,2.207070889,2.249056867,2.16322112,2.100594147,2.12163525,2.094422867,1.958842094,2.004683538,1.967622937,1.937760474,1.936556352,1.933558077,1.935039488,1.930250859,1.913866705,1.907981577,1.896380989,1.886628998,1.872237785,1.88552617,1.917672792,1.936772866,1.938672111,1.946037383,1.947993606,1.968093949,1.960376684,1.957938053,1.955432316,1.93322381,1.935061013,1.914249086,1.908950192,1.913088014,1.897358467,1.874657424,1.870669009,1.864262222,1.859425478,1.85184116,1.847476695,1.845645822,1.853736606,1.84206258,1.843248975,1.838435022,1.830445531,1.822924521,1.809679186,1.801451656,1.788078439,1.770502825,1.784006457,1.797270785,1.805785734,1.797950715,1.737625627,1.818658816,1.81307377,1.893097827,1.954510549,2.003259105,2.048153459,2.089692481,2.163371793,2.256346169,2.377360999,2.503878575,2.413797382,2.32311856,2.149150246,2.044825982,1.946547647,1.874380134,1.850919393,1.801146511,1.720308311,1.662214203,1.580859408,1.661221531,1.791167877,1.860944874,2.007486824,2.200262729,2.230425273,2.315944479,2.299440039,2.153899625,2.073127265,2.037967175,2.056793758,1.998446418,1.864269819,1.741874871,1.682068911,1.614849564,1.539804061,1.44383141,1.368419986,1.376468987,1.43781207,1.459060823,1.41845623,1.358971875,1.355720368,1.346638178,1.365763576,1.323143251,1.275374705,1.2705253,1.250313534,1.199299812,1.154981561,1.108182897,1.075452574,1.054706488,1.060358641,1.048649162,1.082098666,1.110859567,1.098310622,1.084974123,1.10736369,1.148538056,1.186173496,1.220413086,1.255936565,1.284708862,1.320883149,1.374843233,1.430908947,1.486104807,1.551604704,1.633972429,1.726387161,1.816694997,1.898318219,2.032189671,2.184734501,2.212278619,2.3174854,2.436357881,2.469961857,2.466243135,2.314878369,2.230924141,2.085997816
1.054533023,1.197969074,0.944911131,0.751692069,0.709554152,0.661512116,0.651832297,0.644218856,0.678958581,0.738627795,0.807871738,0.872513176,0.95063419,1.006955668,1.128112309,1.256773499,1.332776221,1.456375291,1.615045819,1.750706361,1.954209202,2.185999399,2.07187503,1.894010731,1.839756897,1.853539085,1.728147128,1.681258566,1.740832819,1.607674216,1.398319168,1.289872276,1.481307314,1.73446655,1.980364339,1.965785734,1.850461042,1.701256351,1.593205767,1.492403969,1.548676068,1.585815172,1.713722995,1.686587848,1.491601222,1.445892724,1.457455328,1.398536948,1.239397939,1.371218207,1.437958945,1.48497159,1.463117611,1.539335581,1.499357739,1.468349398,1.492742035,1.613345362,1.786519792,1.824852888,2.047610275,2.050627542,1.783098618,1.499226058,1.478735736,1.600830603,1.73048953,1.843200861,1.970661729,2.19577418,2.201238941,2.184310337,2.108727981,2.038696485,2.089378472,2.164845607,2.305797446,2.390530364,2.552738553,2.608542171,2.556160993,2.50818353,2.593387462,2.77944637,2.779646424,2.704685754,2.733940459,2.628503237,2.569324027,2.504076096,2.495664973,2.465002295,2.42244781,2.382164823,2.357054271,2.350051121,2.33298957,2.277168226,2.220075653,2.180766345,2.193087381,2.21445642,2.225336562,2.230969723,2.252150104,2.332185556,2.240976212,2.137209059,2.090044474,2.010240729,1.987913205,1.999075701,1.976313882,1.9611731,1.968185113,1.956744061,1.965669246,1.953384929,1.946697055,1.93241853,1.925799028,1.915479797,1.904029881,1.909180634,1.931620847,1.95799503,1.960326037,1.967809063,1.968201573,1.989498441,1.988558948,1.964660114,1.957315101,1.952565722,1.946371651,1.926767643,1.929345552,1.917294209,1.903276514,1.902547204,1.898251112,1.886454268,1.879889211,1.881030024,1.869495276,1.866300745,1.870766504,1.869709257,1.865480272,1.856720953,1.846186474,1.84374911,1.824413529,1.824781982,1.823108115,1.795493091,1.789458557,1.804832312,1.810527515,1.776669041,1.756557302,1.813989206,1.890901034,1.931813304,1.944592691,2.025823402,2.104467341,2.201571942,2.275436114,2.308317111,2.375189529,2.485051992,2.381781175,2.23678901,2.165505278,2.095609262,2.042638051,1.977345805,1.924247978,1.887134197,1.755035373,1.674570691,1.644866499,1.714275042,1.809132203,1.94614754,2.071084944,2.229462988,2.370069164,2.356413592,2.404741782,2.348045519,2.284271402,2.165554659,2.028099964,1.914102211,1.8546761,1.779902822,1.676672523,1.674630201,1.580946774,1.530975104,1.433095611,1.318712945,1.226247567,1.290496494,1.307306079,1.271543295,1.278595825,1.239257395,1.287243721,1.24633145,1.185404935,1.163355966,1.16971084,1.188351297,1.140099077,1.094693193,1.087755884,1.077920327,1.082182233,1.063787411,1.057079278,1.066220977,1.049619043,1.076828894,1.137812386,1.169044838,1.214534289,1.264911131,1.290435718,1.32679993,1.357011854,1.382354114,1.433299463,1.481117389,1.55449029,1.64408401,1.755483595,1.857949132,1.959776522,2.05464128,2.168504819,2.293009196,2.248238925,2.180723296,2.201126252,2.175185097,2.109468686,2.080597629,2.015447193
0.966852476,1.034022443,0.849641201,0.671735119,0.587499802,0.588470949,0.601445325,0.618600573,0.654962253,0.699120966,0.756156561,0.844327113,0.900206701,0.98298593,1.093749901,1.195988794,1.348905877,1.535920738,1.704035579,1.841295285,2.041766931,2.226688825,2.098158049,1.912249814,1.742282576,1.644672776,1.57938686,1.468644414,1.431536964,1.370870013,1.321279458,1.257576247,1.327936945,1.547183261,1.78592976,1.773774591,1.835208838,1.715280376,1.562777329,1.44291724,1.438428691,1.461099346,1.561094598,1.498237184,1.395255053,1.338410648,1.295549752,1.261876138,1.222954276,1.290767453,1.317130241,1.305877847,1.326435275,1.373251666,1.445867401,1.508103129,1.676382571,1.71476758,1.949918174,2.034906858,2.135314879,1.860191507,1.62581074,1.436853584,1.545443553,1.649243626,1.788759635,1.875315829,2.073207034,2.355650096,2.538257443,2.476743428,2.369025846,2.223748793,2.258141589,2.205700901,2.224694617,2.439308042,2.718314737,2.830171407,2.760799582,2.681645379,2.637961477,2.720446956,2.806708134,2.779089312,2.754884067,2.681449124,2.583798807,2.587095896,2.560626751,2.530493329,2.484516405,2.451480936,2.419482456,2.389864362,2.354244654,2.324732919,2.23708276,2.216230315,2.227229476,2.278657234,2.27701502,2.264381242,2.277128975,2.33629299,2.271410981,2.118881345,2.067777725,2.014035421,2.01456721,2.036801038,2.009824162,1.997843724,1.997823465,1.983751326,1.988643781,1.980341548,1.975821344,1.963501575,1.953735657,1.95264549,1.934993907,1.94408496,1.944233101,1.973371318,1.986316572,1.9983236,1.992216894,2.007494421,2.011895605,1.981465901,1.972923096,1.97048953,1.960380482,1.944842125,1.942584556,1.936389219,1.93488375,1.924512606,1.920848329,1.911420477,1.905223874,1.901221531,1.891336594,1.881789722,1.889165124,1.888167387,1.885241283,1.875745058,1.871760442,1.86669199,1.842539924,1.852286849,1.842408243,1.830829179,1.819231122,1.812474875,1.806378298,1.786637545,1.81250273,1.761071174,1.869012867,1.879506829,1.923942833,2.102102148,2.232617001,2.288608012,2.400415302,2.382444645,2.417185635,2.489059399,2.382453508,2.377155881,2.303208141,2.235264549,2.136778564,2.059613504,1.936845037,1.847129766,1.767293101,1.738490417,1.754118671,1.849732998,1.821892598,1.935746008,2.10601206,2.196546539,2.172685691,2.132800279,2.150283462,2.078113417,2.055721317,1.995340519,1.941290537,1.879323236,1.777788329,1.846634696,1.670829179,1.530506624,1.506082332,1.391983287,1.376372758,1.234313027,1.147471947,1.159362487,1.184431255,1.145370115,1.159951253,1.147311144,1.183129639,1.15932197,1.163448396,1.116388902,1.056436067,1.065666398,1.021957172,1.021010082,1.05765285,1.047832487,1.061443743,1.037159996,0.996043873,1.027159837,1.08269123,1.107934729,1.13839862,1.182726999,1.231251444,1.278051375,1.295333238,1.328130668,1.380620737,1.420587183,1.466827469,1.514250352,1.566727759,1.638471108,1.695724483,1.756939683,1.831502778,1.911591409,2.018441669,2.108928034,2.074922685,1.976198661,2.009716538,1.998365383,1.966345378,1.964919678,2.013192156
0.86553535,0.829352199,0.757562002,0.574977446,0.539803428,0.546501432,0.570559802,0.608927085,0.649589921,0.690916227,0.746376715,0.813954386,0.90873811,1.013200386,1.11141288,1.230249909,1.396600984,1.582799171,1.764134023,1.941932482,2.080295016,2.246420714,2.20037795,2.065607521,1.93737556,1.676269883,1.629976418,1.684047924,1.564931073,1.560412136,1.434797335,1.323716823,1.233700204,1.351039362,1.538278334,1.620561227,1.794781508,1.690859883,1.548930567,1.422321827,1.32434484,1.35121156,1.488369973,1.438510992,1.3137939,1.280709051,1.247628001,1.203746577,1.198724973,1.225598025,1.270118861,1.344836428,1.446086447,1.513170315,1.6869601,1.65611636,1.732899039,1.918102021,2.062840954,2.221821693,2.095818179,1.808281342,1.478338161,1.458978523,1.711795894,1.715293038,1.811104886,1.917348654,2.180324454,2.499877499,2.791731953,2.774738775,2.541407657,2.440745137,2.49729959,2.448701708,2.266177928,2.362450659,2.554251618,2.67235174,2.699322286,2.766403621,2.786144374,2.799304876,2.872270073,2.857129291,2.798749031,2.670677872,2.669723185,2.657973189,2.638410965,2.612869918,2.565516674,2.546429261,2.485800294,2.44751278,2.41370242,2.336647516,2.265884178,2.246968963,2.287733093,2.333901208,2.293186458,2.268891316,2.258111201,2.248159157,2.159264359,2.105004194,2.075064495,2.055118624,2.033782505,2.073621069,2.039920865,2.021228495,2.025963946,2.012945254,2.013109855,2.034238324,2.063000491,2.037938053,1.993338715,1.985744267,1.969665258,1.976035326,1.977539528,1.992252346,2.005087444,2.023394901,2.025862653,2.027123752,2.006056059,1.993357707,1.991910482,1.986041815,1.974908441,1.962169571,1.962983714,1.968135733,1.962118924,1.953395059,1.944378709,1.939044363,1.931629711,1.921648545,1.912210563,1.894267762,1.903679154,1.902959973,1.90795752,1.903437317,1.89816248,1.889688049,1.879596727,1.875575392,1.861618473,1.852746467,1.838700916,1.830922875,1.816069512,1.811197316,1.818005476,1.75680547,1.790712059,1.815075574,1.904569267,1.972124147,2.061401326,2.155486128,2.248758052,2.275812165,2.430210658,2.625830366,2.493672032,2.553233623,2.480885048,2.331737334,2.197884874,2.058703132,1.976691199,1.872498615,1.831120396,1.875642499,1.866350126,1.899921181,1.913940142,2.005967428,2.176709558,2.334222813,2.092665432,1.985555608,1.976011269,1.838674327,1.806672048,1.829945397,1.836766219,1.719280186,1.610956112,1.677282813,1.649536109,1.474416853,1.408913157,1.306310875,1.249689315,1.17000459,1.11855784,1.065622082,1.136395549,1.121473814,1.047562794,1.075765317,1.088444677,1.06698574,1.053226343,1.042333539,0.990929839,0.972618584,0.971782916,1.0156808,1.020903724,1.045729389,1.058745549,1.040976212,0.975119257,1.024952915,1.055010367,1.104938987,1.167058228,1.201029391,1.213014893,1.218304924,1.247800199,1.326075685,1.367077853,1.419764177,1.461470332,1.502383869,1.551039995,1.610140702,1.675132868,1.744870614,1.837919694,1.974719782,2.0748847,2.185752497,2.049280344,1.884572749,1.904908599,1.877317633,1.901964769,1.895483279,1.94125002
0.748625421,0.709523764,0.595772914,0.511998481,0.520617255,0.538923445,0.565471092,0.603534495,0.655145846,0.722737445,0.81118782,0.909521865,0.991516072,1.082896349,1.190736749,1.321780859,1.462323726,1.602598167,1.730987133,1.775077473,1.934983777,2.162061314,2.056222718,1.929198677,1.799261194,1.712583448,1.843727585,1.9089312,1.732669864,1.536398082,1.517568966,1.457814919,1.330603485,1.210648434,1.279207382,1.446970229,1.59486824,1.651922827,1.581839419,1.416184733,1.25246981,1.289944447,1.405495782,1.400165234,1.273402023,1.225603089,1.1937958,1.176836807,1.18441986,1.249739962,1.346457117,1.455714354,1.525306491,1.644184037,1.725508444,1.824870614,1.839839197,2.054869189,2.1479246,1.981144295,1.845019072,1.659917383,1.413204185,1.559913268,1.82563411,1.855328174,1.942807401,2.141391197,2.304032414,2.573496035,2.7249469,2.7975677,2.72617128,2.756468037,2.825887976,2.717641138,2.454686862,2.342343985,2.435913458,2.496974186,2.540493487,2.627451055,2.685541364,2.846970862,2.874476995,2.907403574,2.771945618,2.74846082,2.765918681,2.727884399,2.738686039,2.702975167,2.697523068,2.620152889,2.552695504,2.470126458,2.394545368,2.394249086,2.285527436,2.28752924,2.353719197,2.380307361,2.341613409,2.289043572,2.256232214,2.199259928,2.136635487,2.125851574,2.106352658,2.092607189,2.06857794,2.09795293,2.060669484,2.044332178,2.05577323,2.038664831,2.040604593,2.091629711,2.113625501,2.10042828,2.066648307,2.014693826,2.001948625,2.004759508,2.005866135,2.016525964,2.028208854,2.045608471,2.051635408,2.045303325,2.018177041,2.009099916,2.014363357,2.005810424,1.992913284,1.982055933,1.984095722,2.001399111,1.989186965,1.979448902,1.973834734,1.968526977,1.956521216,1.939295064,1.931733536,1.915769748,1.923199595,1.92314515,1.928518747,1.924944368,1.917361316,1.909362962,1.899357739,1.889346185,1.876347752,1.865499264,1.85624361,1.843844072,1.822557333,1.817991548,1.816196129,1.767281706,1.809453809,1.825915199,1.853326369,1.899457766,1.977590175,2.086386528,2.179214029,2.33905196,2.462424386,2.505677793,2.558127344,2.711950999,2.622971369,2.435425985,2.254560879,2.116766852,2.004068183,1.909207223,2.003383189,1.93847459,1.943565833,1.970350252,2.034970166,2.179382429,2.416001773,2.359310574,2.05908678,1.941398161,1.844153016,1.777343906,1.692386876,1.712403653,1.783188516,1.745047877,1.624129275,1.478997832,1.512529636,1.382085688,1.357034645,1.349896016,1.286533403,1.143166991,1.110682304,1.025993701,1.020589716,1.013739772,0.980432078,1.016954561,1.053179494,1.047522277,0.996999826,0.934852729,0.96871247,0.990910846,1.004842442,1.002871025,1.006328918,1.058235285,1.05069275,1.000589399,0.960522925,1.042287957,1.088490258,1.111011506,1.13953057,1.130224269,1.166982258,1.197287878,1.258748714,1.318726873,1.343714607,1.37526993,1.406749284,1.497938369,1.564731019,1.606743586,1.672411883,1.772060206,1.861557697,1.963081209,2.077451213,2.25638542,2.011712011,1.820365605,1.783032778,1.767750186,1.835824193,1.816367061,1.801162971
0.485220392,0.502718769,0.484958296,0.492766725,0.509877657,0.524195432,0.546597661,0.600289318,0.65898612,0.686874634,0.773059842,0.857592707,0.94105693,1.01979963,1.141774211,1.292813573,1.380086416,1.41548961,1.464279949,1.60392384,1.893653673,2.221701407,2.146781254,2.034553598,1.895186997,1.891102353,1.985417597,1.899645158,1.67612554,1.671877562,1.707204786,1.5965611,1.422149629,1.271923144,1.185698685,1.194303531,1.285124163,1.364183404,1.463601285,1.36675878,1.216081541,1.26521501,1.35759429,1.393317823,1.319358688,1.189342703,1.156573129,1.155584255,1.241331371,1.346678695,1.377481918,1.574545052,1.709927037,1.72171122,1.7523701,1.866195654,2.048730829,2.119777788,1.99826409,1.862461738,1.622103414,1.422267382,1.392669547,1.60982796,1.802620325,2.057202729,2.238690787,2.434966368,2.473261479,2.346832534,2.411753795,2.547105392,2.80781476,2.918124179,2.777276166,2.676811168,2.602284792,2.469626324,2.532371049,2.724090974,2.780225061,2.808262982,2.838471108,2.989651014,3.045616701,2.907294684,2.818855705,2.897153981,2.909582641,2.818749347,2.863552538,2.877586693,2.815609262,2.67064242,2.593533071,2.491158698,2.471062153,2.38592786,2.299494484,2.351711062,2.427317475,2.439487837,2.38332083,2.318075432,2.257100802,2.198240666,2.171875346,2.157800674,2.145837963,2.127135464,2.100138328,2.118943387,2.075634269,2.0652416,2.084289761,2.063855151,2.070263204,2.124319516,2.136526597,2.127985059,2.08356425,2.049520915,2.03718975,2.034956238,2.035903328,2.049880506,2.05538705,2.066529288,2.067259864,2.061722932,2.032943038,2.027732776,2.037749395,2.031526202,2.008741592,2.00575218,2.00882136,2.027289619,2.017108399,2.009720336,2.005796496,1.995921688,1.97848282,1.962224016,1.953471029,1.939696437,1.94050425,1.948572243,1.95185667,1.941612143,1.938146653,1.925525537,1.9165611,1.902711805,1.891929158,1.879449852,1.865176392,1.847407056,1.835275944,1.836599085,1.789545922,1.791391988,1.828420936,1.844027666,1.886122533,1.938884827,1.983163826,2.060242787,2.159729041,2.283287593,2.339243151,2.434830888,2.567224728,2.726554928,2.687145593,2.372422962,2.213682794,2.120989507,2.042645648,1.993637529,2.041960654,2.037079594,2.025547378,2.049658927,2.168677018,2.328238925,2.37929443,2.264143203,1.949972619,1.83001377,1.788902711,1.670085941,1.589454125,1.586277321,1.662333223,1.647324122,1.563671241,1.430754475,1.339139959,1.294393745,1.240014561,1.226932561,1.168765016,1.024498362,0.942614311,0.916248991,0.892189355,0.88550148,0.881305414,0.907145276,0.928649795,0.944988367,0.942948578,0.963714923,1.055783993,1.070390453,1.090170457,1.082441796,1.080904674,1.085329915,1.075889401,1.023988098,0.949512369,1.041744773,1.049120175,1.039250431,1.064574965,1.132832566,1.203946631,1.245605938,1.256998876,1.293654306,1.300594147,1.316385737,1.357619613,1.420868272,1.475161357,1.537845306,1.607338683,1.701369039,1.805371698,1.897331877,2.047581153,2.119248532,1.88512353,1.751001377,1.706594495,1.751025434,1.803982717,1.716750392,1.720861624
0.472656252,0.470655714,0.474408623,0.480031654,0.491167561,0.502874507,0.526490986,0.562376589,0.584758558,0.618706931,0.680596996,0.745894307,0.900885365,1.023584192,1.131196683,1.090933954,1.135496573,1.226640077,1.366986689,1.578301758,1.878224206,2.163871928,2.140306095,2.132539449,1.977877594,2.044907016,2.047969865,1.813851194,1.838888309,1.870224586,1.826081066,1.618697434,1.503819698,1.381822326,1.325570486,1.247840717,1.166421348,1.148949559,1.182938449,1.233687543,1.181831822,1.227175664,1.331216308,1.311864267,1.208594717,1.140657455,1.130901667,1.208588386,1.366597977,1.50417549,1.49314974,1.559684092,1.608674485,1.604893721,1.684122628,1.860204169,2.050164126,2.036623775,1.862527579,1.665994967,1.46219711,1.33538705,1.457808588,1.706755298,1.970055236,2.264857319,2.367921751,2.355351281,2.232230822,2.120123451,2.264977605,2.529752623,2.721538388,2.60183657,2.446266876,2.355433582,2.46587848,2.600270326,2.627088932,2.701420319,2.922159442,2.967602045,3.093700521,3.106488771,3.125791431,2.943512021,2.934502002,3.085627463,3.089128405,2.908315211,3.004087808,3.090256556,2.89990662,2.749783961,2.647947707,2.533004131,2.439362487,2.353600177,2.361940395,2.448061029,2.543029612,2.570952313,2.431232452,2.356262919,2.283361031,2.227670101,2.215612427,2.20056281,2.191031132,2.168062928,2.135366792,2.141759651,2.093910071,2.094835636,2.104572432,2.100973996,2.107430163,2.149238878,2.161054714,2.158347657,2.134236108,2.086324486,2.074206036,2.063864014,2.064445183,2.079331466,2.078803476,2.094112657,2.088796037,2.09302249,2.054719782,2.047091148,2.06011617,2.051755694,2.031554057,2.033629299,2.050541443,2.050959277,2.04499818,2.040086732,2.033568523,2.020272542,2.008156624,1.989563015,1.977590175,1.960108257,1.95958913,1.970309735,1.971545511,1.962069544,1.959410601,1.94650713,1.935377554,1.920731842,1.90567716,1.893219379,1.879928462,1.855496573,1.847540003,1.823085324,1.779338113,1.825594859,1.87340139,1.905731605,1.957620246,2.000959752,2.051483469,2.0857028,2.128725765,2.199416932,2.299328617,2.405635693,2.508829274,2.684385357,2.677169492,2.419040565,2.319627748,2.207744488,2.095961255,2.111717392,2.172832566,2.131171992,2.126027571,2.058125762,2.10951047,2.102111011,2.064341358,1.947116155,1.817658547,1.719720811,1.698829115,1.630547457,1.528851748,1.460181378,1.489117009,1.459012709,1.490336325,1.432408084,1.358956681,1.198466676,1.109735214,1.054882484,0.978545495,0.940678347,0.946241869,0.945168162,0.919439723,0.875093617,0.856456958,0.833036735,0.820190241,0.841830239,0.862906795,0.927115205,0.937602836,0.997697482,1.025675894,1.029346501,1.03759429,1.031088742,1.062004653,1.000756533,0.92485637,1.03294747,1.006811326,1.041354795,1.07324945,1.135948594,1.160277923,1.19341595,1.227937895,1.237356884,1.249927354,1.302898564,1.389225583,1.450733267,1.50271687,1.560256398,1.621821059,1.69538895,1.796725068,1.97005397,2.203957394,2.072705633,1.820180745,1.719894275,1.631048858,1.680950889,1.687585585,1.645457797,1.653876517
0.477848788,0.475617809,0.472923413,0.474218698,0.481586503,0.497085608,0.518958581,0.546296314,0.579990187,0.615656743,0.666898375,0.770688318,0.847283605,0.946035484,0.937826947,1.061148727,1.20389092,1.356053369,1.557103651,1.717469573,1.901915389,1.928356678,1.854648244,1.927279173,2.042943197,2.154259215,2.053605558,1.950171407,2.051545511,1.954608043,1.756785211,1.628087302,1.551846541,1.488835921,1.49438045,1.377649051,1.265141573,1.20271592,1.184260323,1.129151829,1.12762357,1.160988241,1.251720241,1.25946283,1.140012978,1.109195828,1.178941171,1.331835462,1.456346169,1.49002105,1.637655699,1.499110837,1.480419733,1.515248089,1.627422566,1.867027523,1.909250273,1.865477739,1.653124416,1.555951443,1.365761043,1.324162512,1.538406217,1.838866784,1.986914202,2.035760252,2.043304053,2.038347024,1.93863286,2.042041688,2.271071649,2.578787332,2.534174066,2.27729864,2.156899166,2.230401216,2.421366507,2.65508507,2.778013073,2.760098128,2.862197743,2.95967333,3.038761692,3.149958691,3.115291138,2.996257854,3.077958312,3.208028742,3.067132615,3.037449947,3.193060159,3.260823956,2.982169254,2.784478103,2.629035025,2.540750518,2.424016587,2.394469398,2.439844895,2.549788392,2.700549198,2.677085925,2.560855926,2.426889511,2.318020987,2.267620088,2.251932324,2.244892455,2.231702831,2.194670085,2.178844309,2.188402577,2.142038206,2.130759223,2.130838992,2.137115363,2.13820553,2.176034693,2.1894345,2.180819524,2.156509188,2.121937863,2.105957615,2.104983936,2.088421253,2.106738838,2.105442287,2.119380213,2.116578194,2.119865154,2.093422598,2.070678505,2.085873732,2.068952725,2.057839609,2.058323283,2.07928715,2.076380039,2.075110077,2.065934191,2.059205799,2.045785734,2.038258392,2.020506782,1.998995932,1.984186886,1.979117168,1.989668107,1.98481237,1.982761186,1.975759302,1.96394853,1.949231914,1.932936391,1.91637624,1.902534543,1.878469842,1.860371302,1.849581058,1.803686435,1.822263584,1.82787522,1.904723739,1.991626862,2.050678189,2.103436684,2.157822199,2.204979187,2.242577909,2.257722489,2.349739645,2.519333365,2.622728266,2.755631103,2.809672222,2.621840685,2.412803444,2.263921624,2.183099884,2.238278018,2.311167244,2.217314151,2.084794961,1.980252916,1.958954782,1.900889796,1.839442888,1.787060443,1.74327778,1.655655477,1.584402133,1.535463653,1.482496241,1.404234683,1.382083155,1.342596585,1.282813415,1.202118291,1.12785781,1.045918048,0.998787649,0.979373566,1.020266844,1.101315227,1.094068974,1.064564835,1.051448649,0.98102211,0.926358039,0.86105693,0.830280297,0.806772708,0.78620515,0.807269044,0.860826488,0.922286058,0.96784135,0.93827137,0.937975088,0.941648228,0.977262871,0.953797066,0.89396958,1.008435813,0.975630787,1.018637292,1.038184322,1.141790672,1.165289397,1.16143393,1.150280297,1.192998117,1.239890477,1.324489182,1.398467309,1.484599338,1.558838295,1.627325072,1.706204517,1.744688286,1.885754079,1.985030151,2.194062327,1.977696532,1.819751515,1.693297248,1.570692117,1.583600652,1.639271323,1.570065366,1.636669357
